//X,Y,Z,R,G,B,Point Source ID,User Data,Time,Intensity,Classification
440423.13999512,4464173.68998901,5.55000019,0,237,17,2.000000,30.000000,373098.937500,63.000000,1.000000
440423.93999817,4464173.62999146,5.90000010,0,252,2,2.000000,14.000000,373099.125000,63.000000,1.000000
440423.02999451,4464174.09999268,5.88999987,0,252,2,2.000000,12.000000,373099.437500,63.000000,1.000000
440423.57999756,4464174.52998535,5.11999989,0,219,35,2.000000,20.000000,373101.625000,49.000000,1.000000
440421.74000122,4464173.50999634,4.67000008,0,200,54,3.000000,23.000000,373180.687500,63.000000,1.000000
440422.64998962,4464173.21998779,6.05999994,4,255,0,2.000000,21.000000,373097.125000,63.000000,1.000000
440421.39998962,4464173.81001465,4.98999977,0,213,41,2.000000,19.000000,373097.437500,63.000000,1.000000
440421.29999878,4464172.80000488,6.51000023,23,255,0,2.000000,3.000000,373097.437500,63.000000,1.000000
440423.93999817,4464173.15001099,6.67000008,30,255,0,2.000000,17.000000,373098.531250,63.000000,1.000000
440422.50999023,4464173.61000244,6.13999987,8,255,0,2.000000,26.000000,373099.937500,63.000000,1.000000
440421.78998901,4464173.19999878,5.42000008,0,232,22,3.000000,7.000000,373180.687500,63.000000,1.000000
440421.80999329,4464173.24998657,5.51999998,0,236,18,3.000000,1.000000,373182.281250,63.000000,1.000000
440421.63999512,4464172.92000000,5.53999996,0,237,17,3.000000,10.000000,373183.875000,63.000000,1.000000
440420.17998840,4464172.90999023,4.48999977,0,192,62,2.000000,15.000000,373093.625000,63.000000,1.000000
440421.79999878,4464173.97999756,4.67000008,0,200,54,2.000000,31.000000,373094.031250,63.000000,1.000000
440421.74999573,4464173.52000610,4.51000023,0,192,62,2.000000,31.000000,373094.031250,63.000000,1.000000
440420.30999329,4464172.96000854,4.78999996,0,204,50,2.000000,13.000000,373094.343750,47.000000,1.000000
440424.08999207,4464173.52998535,5.63000011,0,241,13,2.000000,15.000000,373094.437500,63.000000,1.000000
440423.88000061,4464173.15001099,6.63000011,29,255,0,2.000000,31.000000,373094.437500,63.000000,1.000000
440421.88999512,4464173.93000977,4.69999981,0,201,53,2.000000,13.000000,373094.531250,47.000000,1.000000
440421.85000183,4464173.80000488,4.94000006,0,211,43,2.000000,29.000000,373094.531250,47.000000,1.000000
440421.81998779,4464173.49998657,5.07999992,0,217,37,2.000000,13.000000,373094.531250,47.000000,1.000000
440422.41999390,4464173.84999268,4.46000004,0,191,63,2.000000,13.000000,373094.625000,47.000000,1.000000
440422.36999084,4464173.72999756,4.73000002,0,202,52,2.000000,29.000000,373094.625000,47.000000,1.000000
440422.99000122,4464174.15001099,5.07000017,0,217,37,2.000000,29.000000,373094.718750,47.000000,1.000000
440422.88000061,4464173.81999390,5.73000002,0,245,9,2.000000,29.000000,373094.718750,47.000000,1.000000
440423.33999207,4464174.24998657,5.09999990,0,218,36,2.000000,29.000000,373094.843750,47.000000,1.000000
440423.33999207,4464173.94999878,5.15000010,0,220,34,2.000000,13.000000,373094.843750,47.000000,1.000000
440423.30999329,4464173.77000610,5.28999996,0,226,28,2.000000,29.000000,373094.843750,47.000000,1.000000
440423.27000000,4464173.49998657,5.53999996,0,237,17,2.000000,13.000000,373094.843750,47.000000,1.000000
440424.02999451,4464173.93998901,5.36999989,0,230,24,2.000000,13.000000,373094.937500,47.000000,1.000000
440423.92998840,4464173.94999878,5.92999983,0,254,0,2.000000,29.000000,373094.937500,47.000000,1.000000
440423.89998962,4464173.42000000,6.05000019,4,255,0,2.000000,29.000000,373094.937500,47.000000,1.000000
440421.03998901,4464173.02000610,4.82999992,0,207,47,2.000000,11.000000,373094.937500,63.000000,1.000000
440421.67998840,4464173.62001221,4.57999992,0,195,59,2.000000,11.000000,373095.031250,63.000000,1.000000
440422.02999451,4464173.99000732,4.69000006,0,201,53,2.000000,27.000000,373095.125000,63.000000,1.000000
440422.00999023,4464173.69999878,4.78999996,0,204,50,2.000000,11.000000,373095.125000,63.000000,1.000000
440422.08999207,4464172.86000244,4.61999989,0,198,56,2.000000,11.000000,373095.125000,63.000000,1.000000
440422.52000000,4464173.83000366,4.67000008,0,200,54,2.000000,11.000000,373095.218750,63.000000,1.000000
440422.93999817,4464173.92000000,5.75000000,0,246,8,2.000000,27.000000,373095.343750,63.000000,1.000000
440422.97999146,4464173.40001099,5.34999990,0,229,25,2.000000,11.000000,373095.343750,63.000000,1.000000
440423.46999695,4464174.17000000,5.07999992,0,217,37,2.000000,11.000000,373095.437500,63.000000,1.000000
440423.44999268,4464173.99998657,5.23000002,0,224,30,2.000000,27.000000,373095.437500,63.000000,1.000000
440424.19999268,4464174.30000488,5.71999979,0,245,9,2.000000,27.000000,373095.531250,63.000000,1.000000
440424.17998840,4464174.02000610,5.84000015,0,250,4,2.000000,11.000000,373095.531250,63.000000,1.000000
440424.20998718,4464173.08000366,5.71999979,0,245,9,2.000000,27.000000,373095.531250,63.000000,1.000000
440424.08999207,4464173.09999268,6.57999992,26,255,0,2.000000,11.000000,373095.531250,63.000000,1.000000
440422.15999939,4464172.93998901,4.63000011,0,198,56,2.000000,25.000000,373095.625000,63.000000,1.000000
440422.81998779,4464174.15001099,5.34999990,0,229,25,2.000000,9.000000,373095.718750,63.000000,1.000000
440422.75999023,4464173.72999756,4.80000019,0,205,49,2.000000,9.000000,373095.718750,63.000000,1.000000
440423.15999939,4464174.15999023,5.05000019,0,216,38,2.000000,25.000000,373095.843750,63.000000,1.000000
440423.10000183,4464174.05000488,5.59000015,0,239,15,2.000000,9.000000,373095.843750,63.000000,1.000000
440420.35000183,4464172.90999023,4.67999983,0,200,54,2.000000,23.000000,373095.843750,63.000000,1.000000
440423.35999634,4464173.99998657,5.01999998,0,215,39,2.000000,25.000000,373095.937500,63.000000,1.000000
440423.31998779,4464173.77998535,5.34000015,0,228,26,2.000000,9.000000,373095.937500,63.000000,1.000000
440423.79999878,4464173.99998657,5.19000006,0,222,32,2.000000,9.000000,373096.031250,63.000000,1.000000
440423.75999023,4464173.87999146,5.23999977,0,224,30,2.000000,25.000000,373096.031250,63.000000,1.000000
440423.69999268,4464173.49000732,5.65999985,0,242,12,2.000000,25.000000,373096.031250,63.000000,1.000000
440420.93999817,4464173.06999390,4.84999990,0,207,47,2.000000,7.000000,373096.031250,63.000000,1.000000
440421.67998840,4464173.67000000,4.55999994,0,195,59,2.000000,23.000000,373096.125000,63.000000,1.000000
440422.10000183,4464173.71998779,4.94999981,0,212,42,2.000000,7.000000,373096.218750,63.000000,1.000000
440422.28998901,4464173.87999146,4.73000002,0,202,52,2.000000,23.000000,373096.343750,63.000000,1.000000
440422.25999023,4464172.80000488,4.86000013,0,208,46,2.000000,7.000000,373096.343750,63.000000,1.000000
440422.64998962,4464173.77000610,4.76000023,0,204,50,2.000000,23.000000,373096.437500,63.000000,1.000000
440423.22999146,4464174.09001343,5.09000015,0,218,36,2.000000,7.000000,373096.531250,63.000000,1.000000
440423.71999695,4464173.87001221,5.28999996,0,226,28,2.000000,7.000000,373096.625000,63.000000,1.000000
440423.69999268,4464173.68998901,5.40999985,0,231,23,2.000000,23.000000,373096.625000,63.000000,1.000000
440423.64998962,4464173.31001465,5.84999990,0,250,4,2.000000,23.000000,373096.625000,63.000000,1.000000
440420.92998840,4464173.12999146,4.80999994,0,206,48,2.000000,21.000000,373096.625000,63.000000,1.000000
440424.18999817,4464173.56001465,5.71999979,0,245,9,2.000000,7.000000,373096.718750,63.000000,1.000000
440421.74999573,4464173.87999146,4.61999989,0,198,56,2.000000,5.000000,373096.843750,63.000000,1.000000
440421.72999146,4464173.65999023,4.65000010,0,198,56,2.000000,21.000000,373096.843750,63.000000,1.000000
440421.81998779,4464173.93000977,4.88999987,0,209,45,2.000000,21.000000,373096.937500,63.000000,1.000000
440423.33999207,4464174.37999146,5.11999989,0,219,35,2.000000,21.000000,373097.218750,63.000000,1.000000
440423.30999329,4464174.02000610,5.09999990,0,218,36,2.000000,5.000000,373097.218750,63.000000,1.000000
440423.29999878,4464173.86000244,5.30999994,0,227,27,2.000000,21.000000,373097.218750,63.000000,1.000000
440423.53998901,4464174.06999390,5.21999979,0,223,31,2.000000,21.000000,373097.343750,63.000000,1.000000
440423.52000000,4464173.75999634,5.38000011,0,230,24,2.000000,5.000000,373097.343750,63.000000,1.000000
440420.77000000,4464173.18000977,4.50000000,0,192,62,2.000000,3.000000,373097.343750,63.000000,1.000000
440424.10000183,4464174.12999146,5.94000006,0,255,0,2.000000,5.000000,373097.437500,63.000000,1.000000
440421.88999512,4464173.90001099,4.82999992,0,207,47,2.000000,3.000000,373097.531250,63.000000,1.000000
440421.89998962,4464173.77998535,5.07999992,0,217,37,2.000000,19.000000,373097.531250,63.000000,1.000000
440421.80999329,4464172.86000244,4.80999994,0,206,48,2.000000,19.000000,373097.531250,63.000000,1.000000
440422.47999146,4464173.77000610,4.73999977,0,203,51,2.000000,19.000000,373097.625000,63.000000,1.000000
440423.02000000,4464174.06001465,5.69000006,0,243,11,2.000000,3.000000,373097.718750,63.000000,1.000000
440423.28998901,4464174.21998779,5.07999992,0,217,37,2.000000,19.000000,373097.843750,63.000000,1.000000
440423.64998962,4464174.19999878,5.07999992,0,217,37,2.000000,19.000000,373097.937500,63.000000,1.000000
440423.61999084,4464173.94999878,5.38000011,0,230,24,2.000000,3.000000,373097.937500,63.000000,1.000000
440420.88000061,4464173.17000000,4.84000015,0,207,47,2.000000,17.000000,373097.937500,63.000000,1.000000
440421.88000061,4464172.93998901,4.82000017,0,206,48,2.000000,1.000000,373098.125000,63.000000,1.000000
440422.45998718,4464173.68998901,4.78000021,0,204,50,2.000000,1.000000,373098.250000,63.000000,1.000000
440422.91999390,4464174.12999146,5.65999985,0,242,12,2.000000,1.000000,373098.343750,63.000000,1.000000
440423.35999634,4464174.37001221,5.19999981,0,222,32,2.000000,1.000000,373098.437500,63.000000,1.000000
440423.32999756,4464174.12001221,5.13999987,0,220,34,2.000000,17.000000,373098.437500,63.000000,1.000000
440423.30999329,4464173.87001221,5.42999983,0,232,22,2.000000,1.000000,373098.437500,63.000000,1.000000
440423.30999329,4464173.71000854,5.61999989,0,240,14,2.000000,17.000000,373098.437500,63.000000,1.000000
440424.04999878,4464174.31999390,5.98999977,1,255,0,2.000000,1.000000,373098.531250,63.000000,1.000000
440423.97999146,4464173.90001099,5.71000004,0,244,10,2.000000,17.000000,373098.531250,63.000000,1.000000
440423.96999695,4464173.65999023,5.94000006,0,255,0,2.000000,1.000000,373098.531250,63.000000,1.000000
440421.97999146,4464172.97999756,4.73999977,0,203,51,2.000000,30.000000,373098.625000,63.000000,1.000000
440422.68999817,4464173.99000732,4.75000000,0,203,51,2.000000,30.000000,373098.750000,63.000000,1.000000
440422.65999939,4464173.68998901,4.86999989,0,208,46,2.000000,14.000000,373098.750000,63.000000,1.000000
440423.02999451,4464174.24000732,5.21000004,0,223,31,2.000000,14.000000,373098.843750,63.000000,1.000000
440423.06998779,4464174.21000854,5.73000002,0,245,9,2.000000,30.000000,373098.843750,63.000000,1.000000
440423.05999329,4464173.96998779,6.03000021,3,255,0,2.000000,14.000000,373098.843750,63.000000,1.000000
440423.13000061,4464173.80000488,5.25000000,0,225,29,2.000000,14.000000,373098.937500,63.000000,1.000000
440423.50999023,4464174.24998657,5.09999990,0,218,36,2.000000,30.000000,373099.031250,63.000000,1.000000
440423.49999573,4464174.00999634,5.34000015,0,228,26,2.000000,14.000000,373099.031250,63.000000,1.000000
440424.02999451,4464174.30000488,5.96000004,0,255,0,2.000000,14.000000,373099.125000,63.000000,1.000000
440421.83999207,4464173.94999878,5.07999992,0,217,37,2.000000,28.000000,373099.250000,63.000000,1.000000
440421.80999329,4464173.62001221,5.13999987,0,220,34,2.000000,12.000000,373099.250000,63.000000,1.000000
440422.39998962,4464173.99000732,4.55999994,0,195,59,2.000000,12.000000,373099.343750,63.000000,1.000000
440422.99999573,4464174.24998657,5.38000011,0,230,24,2.000000,28.000000,373099.437500,63.000000,1.000000
440423.56998779,4464174.28999512,5.05999994,0,216,38,2.000000,12.000000,373099.531250,63.000000,1.000000
440423.56998779,4464174.14000122,5.28000021,0,226,28,2.000000,28.000000,373099.531250,63.000000,1.000000
440424.10000183,4464174.27000610,6.01999998,2,255,0,2.000000,28.000000,373099.625000,63.000000,1.000000
440423.99000122,4464173.80000488,5.82999992,0,249,5,2.000000,12.000000,373099.625000,63.000000,1.000000
440423.99999573,4464173.65999023,6.09999990,6,255,0,2.000000,28.000000,373099.625000,63.000000,1.000000
440423.10000183,4464174.08000366,5.92999983,0,254,0,2.000000,26.000000,373100.031250,63.000000,1.000000
440424.06998779,4464173.80000488,5.73000002,0,245,9,2.000000,10.000000,373100.125000,63.000000,1.000000
440422.04999878,4464174.06001465,4.51000023,0,192,62,2.000000,8.000000,373100.250000,63.000000,1.000000
440422.08999207,4464173.96000854,5.21999979,0,223,31,2.000000,24.000000,373100.250000,63.000000,1.000000
440422.60000183,4464173.81001465,4.86000013,0,208,46,2.000000,8.000000,373100.343750,63.000000,1.000000
440422.91999390,4464174.37999146,5.40999985,0,231,23,2.000000,24.000000,373100.437500,63.000000,1.000000
440422.94999268,4464174.17000000,5.78000021,0,247,7,2.000000,8.000000,373100.437500,63.000000,1.000000
440423.18999817,4464174.25999634,5.19000006,0,222,32,2.000000,8.000000,373100.531250,63.000000,1.000000
440423.16999390,4464173.80000488,5.57000017,0,238,16,2.000000,8.000000,373100.531250,63.000000,1.000000
440424.11999084,4464174.53999512,5.94000006,0,255,0,2.000000,24.000000,373100.625000,63.000000,1.000000
440423.95998718,4464173.87999146,5.90000010,0,252,2,2.000000,24.000000,373100.625000,63.000000,1.000000
440421.72999146,4464173.84999268,4.67999983,0,200,54,2.000000,6.000000,373100.750000,63.000000,1.000000
440422.16999390,4464174.15001099,4.50000000,0,192,62,2.000000,6.000000,373100.843750,63.000000,1.000000
440422.15999939,4464173.96998779,5.03000021,0,215,39,2.000000,22.000000,373100.843750,63.000000,1.000000
440422.67998840,4464173.86000244,4.86999989,0,208,46,2.000000,6.000000,373100.937500,63.000000,1.000000
440423.11999084,4464174.34001343,5.23999977,0,224,30,2.000000,22.000000,373101.031250,63.000000,1.000000
440423.49999573,4464174.40001099,5.23000002,0,224,30,2.000000,6.000000,373101.125000,63.000000,1.000000
440424.19999268,4464174.43998901,5.86999989,0,251,3,2.000000,6.000000,373101.218750,63.000000,1.000000
440424.02999451,4464174.03999512,5.40999985,0,231,23,2.000000,22.000000,373101.218750,63.000000,1.000000
440421.89998962,4464174.09001343,4.65000010,0,198,56,2.000000,20.000000,373101.343750,50.000000,1.000000
440422.88999512,4464174.44999878,5.19999981,0,222,32,2.000000,20.000000,373101.531250,49.000000,1.000000
440423.00999023,4464174.17000000,5.94999981,0,255,0,2.000000,20.000000,373101.531250,50.000000,1.000000
440423.57999756,4464174.27998535,5.32999992,0,228,26,2.000000,4.000000,373101.625000,49.000000,1.000000
440423.53998901,4464174.05000488,5.34000015,0,228,26,2.000000,20.000000,373101.625000,49.000000,1.000000
440421.54999878,4464173.84999268,4.84999990,0,207,47,2.000000,16.000000,373102.343750,63.000000,1.000000
440421.92998840,4464174.12999146,4.59000015,0,196,58,2.000000,16.000000,373102.437500,63.000000,1.000000
440421.96999695,4464173.90001099,5.28999996,0,226,28,2.000000,0.000000,373102.437500,63.000000,1.000000
440422.90999939,4464174.56999390,5.26999998,0,225,29,2.000000,16.000000,373102.625000,63.000000,1.000000
440423.03998901,4464174.24000732,5.92999983,0,254,0,2.000000,16.000000,373102.625000,63.000000,1.000000
440423.10999634,4464174.24000732,5.63000011,0,241,13,3.000000,15.000000,373178.375000,63.000000,1.000000
440422.86999084,4464173.89000122,5.90999985,0,253,1,3.000000,31.000000,373178.500000,63.000000,1.000000
440423.05999329,4464173.78999512,6.09999990,6,255,0,3.000000,29.000000,373178.875000,49.000000,1.000000
440422.95998718,4464174.19999878,5.76000023,0,246,8,3.000000,13.000000,373178.875000,49.000000,1.000000
440423.82999756,4464174.00999634,5.90999985,0,253,1,3.000000,11.000000,373179.281250,63.000000,1.000000
440423.10999634,4464174.27000610,5.65000010,0,242,12,3.000000,11.000000,373179.500000,63.000000,1.000000
440423.21999695,4464172.89000122,5.53999996,0,237,17,3.000000,9.000000,373180.000000,63.000000,1.000000
440423.16999390,4464173.93000977,5.92999983,0,254,0,3.000000,25.000000,373180.000000,63.000000,1.000000
440423.10999634,4464174.31999390,5.67999983,0,243,11,3.000000,9.000000,373180.000000,63.000000,1.000000
440423.24000122,4464173.96998779,5.90000010,0,252,2,3.000000,23.000000,373180.375000,63.000000,1.000000
440423.22999146,4464174.17000000,5.73999977,0,246,8,3.000000,21.000000,373181.000000,63.000000,1.000000
440422.80999329,4464174.15999023,5.86999989,0,251,3,3.000000,21.000000,373181.093750,63.000000,1.000000
440423.15999939,4464174.31001465,5.71000004,0,244,10,3.000000,19.000000,373181.593750,63.000000,1.000000
440421.83999207,4464173.36000244,5.28999996,0,226,28,3.000000,3.000000,373181.781250,63.000000,1.000000
440422.88000061,4464174.15001099,5.92999983,0,254,0,3.000000,1.000000,373182.093750,63.000000,1.000000
440423.82999756,4464174.11000244,5.94000006,0,255,0,3.000000,14.000000,373182.375000,63.000000,1.000000
440421.32999756,4464173.40999023,4.46000004,0,191,63,3.000000,14.000000,373182.781250,63.000000,1.000000
440422.88999512,4464174.18998901,5.69999981,0,244,10,3.000000,28.000000,373183.000000,63.000000,1.000000
440423.16999390,4464174.15999023,5.86000013,0,251,3,3.000000,10.000000,373183.593750,63.000000,1.000000
440423.20998718,4464174.14000122,5.78999996,0,248,6,3.000000,26.000000,373183.687500,63.000000,1.000000
440423.13999512,4464173.97999756,6.05000019,4,255,0,3.000000,8.000000,373184.093750,63.000000,1.000000
440423.88999512,4464174.24000732,6.01000023,2,255,0,3.000000,6.000000,373184.500000,63.000000,1.000000
440423.07999756,4464174.12001221,5.76000023,0,246,8,3.000000,6.000000,373184.593750,63.000000,1.000000
440422.95998718,4464173.90001099,5.98999977,1,255,0,3.000000,4.000000,373185.187500,52.000000,1.000000
440423.02000000,4464174.18000977,5.69000006,0,243,11,3.000000,20.000000,373185.187500,51.000000,1.000000
440423.85000183,4464174.08000366,5.94999981,0,255,0,3.000000,0.000000,373186.187500,63.000000,1.000000
440423.69999268,4464173.84999268,5.84000015,0,250,4,3.000000,16.000000,373186.500000,63.000000,1.000000
440421.52000000,4464172.92000000,6.19999981,10,255,0,2.000000,31.000000,373094.031250,63.000000,1.000000
440421.79999878,4464173.09999268,6.50000000,23,255,0,2.000000,15.000000,373094.125000,63.000000,1.000000
440422.39998962,4464173.27000610,5.88999987,0,252,2,2.000000,15.000000,373094.218750,63.000000,1.000000
440422.36999084,4464173.12001221,6.05999994,4,255,0,2.000000,31.000000,373094.218750,63.000000,1.000000
440422.57999756,4464173.09001343,6.46999979,22,255,0,2.000000,13.000000,373094.718750,48.000000,1.000000
440423.10000183,4464173.14000122,6.51000023,23,255,0,2.000000,29.000000,373094.843750,48.000000,1.000000
440421.47999146,4464173.05000488,5.90999985,0,253,1,2.000000,11.000000,373095.031250,63.000000,1.000000
440421.75999023,4464173.06999390,6.05000019,4,255,0,2.000000,27.000000,373095.125000,63.000000,1.000000
440422.31998779,4464173.30000488,6.01000023,2,255,0,2.000000,11.000000,373095.218750,63.000000,1.000000
440422.29999878,4464173.12999146,6.15000010,8,255,0,2.000000,27.000000,373095.218750,63.000000,1.000000
440422.74000122,4464173.37001221,6.15000010,8,255,0,2.000000,27.000000,373095.343750,63.000000,1.000000
440422.75999023,4464172.96998779,6.53999996,25,255,0,2.000000,11.000000,373095.343750,63.000000,1.000000
440423.24999573,4464173.11000244,6.67999983,31,255,0,2.000000,11.000000,373095.437500,63.000000,1.000000
440421.36999084,4464173.75999634,4.96999979,0,213,41,2.000000,25.000000,373095.531250,63.000000,1.000000
440421.36999084,4464173.37999146,4.88000011,0,209,45,2.000000,9.000000,373095.531250,63.000000,1.000000
440421.27000000,4464172.96998779,6.21999979,11,255,0,2.000000,25.000000,373095.531250,63.000000,1.000000
440422.61999084,4464173.42000000,5.98999977,1,255,0,2.000000,25.000000,373095.718750,63.000000,1.000000
440422.56998779,4464173.03999512,6.42000008,20,255,0,2.000000,25.000000,373095.718750,63.000000,1.000000
440421.63000061,4464173.27000610,5.00000000,0,214,40,2.000000,23.000000,373096.125000,63.000000,1.000000
440421.54999878,4464173.12001221,5.94000006,0,255,0,2.000000,23.000000,373096.125000,63.000000,1.000000
440421.52000000,4464172.81999390,6.46999979,22,255,0,2.000000,7.000000,373096.125000,63.000000,1.000000
440422.14998962,4464173.05000488,6.21000004,11,255,0,2.000000,7.000000,373096.343750,63.000000,1.000000
440422.49000122,4464173.03999512,6.46999979,22,255,0,2.000000,7.000000,373096.437500,63.000000,1.000000
440423.07999756,4464173.30000488,6.50000000,23,255,0,2.000000,23.000000,373096.531250,63.000000,1.000000
440421.43999817,4464173.46998779,4.98000002,0,213,41,2.000000,21.000000,373096.718750,63.000000,1.000000
440421.35999634,4464172.89000122,6.23000002,11,255,0,2.000000,5.000000,373096.718750,63.000000,1.000000
440421.32999756,4464172.84001343,6.61999989,29,255,0,2.000000,21.000000,373096.718750,63.000000,1.000000
440421.61999084,4464173.15999023,6.15999985,8,255,0,2.000000,21.000000,373096.843750,63.000000,1.000000
440421.68999817,4464173.17000000,6.11999989,7,255,0,2.000000,5.000000,373096.937500,63.000000,1.000000
440421.67998840,4464172.84999268,6.36999989,17,255,0,2.000000,21.000000,373096.937500,63.000000,1.000000
440420.75999023,4464173.12001221,4.88000011,0,209,45,2.000000,19.000000,373097.343750,63.000000,1.000000
440421.36999084,4464173.44999878,4.90000010,0,210,44,2.000000,3.000000,373097.437500,63.000000,1.000000
440424.02999451,4464173.18000977,6.67000008,30,255,0,2.000000,5.000000,373097.437500,63.000000,1.000000
440421.35000183,4464173.21000854,4.86999989,0,208,46,2.000000,19.000000,373097.437500,63.000000,1.000000
440421.32999756,4464173.03999512,5.80999994,0,249,5,2.000000,19.000000,373097.437500,63.000000,1.000000
440422.46999695,4464173.40999023,6.07999992,5,255,0,2.000000,3.000000,373097.625000,63.000000,1.000000
440422.43999817,4464173.25999634,6.26999998,13,255,0,2.000000,19.000000,373097.625000,63.000000,1.000000
440420.85000183,4464172.87999146,5.42999983,0,232,22,2.000000,1.000000,373097.937500,63.000000,1.000000
440421.40999939,4464173.75999634,5.01000023,0,214,40,2.000000,17.000000,373098.031250,63.000000,1.000000
440421.38000061,4464173.43998901,5.07999992,0,217,37,2.000000,1.000000,373098.031250,63.000000,1.000000
440421.39998962,4464173.24000732,5.92000008,0,253,1,2.000000,1.000000,373098.031250,63.000000,1.000000
440422.52000000,4464173.67000000,6.09999990,6,255,0,2.000000,1.000000,373098.250000,63.000000,1.000000
440422.49000122,4464173.24998657,6.46999979,22,255,0,2.000000,1.000000,373098.250000,63.000000,1.000000
440423.95998718,4464173.37999146,6.67000008,30,255,0,2.000000,1.000000,373098.531250,63.000000,1.000000
440421.27000000,4464173.42000000,4.96000004,0,212,42,2.000000,14.000000,373098.531250,63.000000,1.000000
440421.24000122,4464173.17000000,4.90999985,0,210,44,2.000000,30.000000,373098.531250,63.000000,1.000000
440422.72999146,4464173.44999878,6.17000008,9,255,0,2.000000,30.000000,373098.750000,63.000000,1.000000
440423.17998840,4464173.24000732,6.63999987,29,255,0,2.000000,14.000000,373098.937500,63.000000,1.000000
440420.75999023,4464172.99998657,4.96000004,0,212,42,2.000000,12.000000,373099.031250,63.000000,1.000000
440421.35000183,4464174.02998535,4.75000000,0,203,51,2.000000,28.000000,373099.125000,63.000000,1.000000
440421.22999146,4464173.37999146,4.86999989,0,208,46,2.000000,28.000000,373099.125000,63.000000,1.000000
440421.33999207,4464173.24000732,5.90999985,0,253,1,2.000000,28.000000,373099.125000,63.000000,1.000000
440421.89998962,4464173.28999512,6.23999977,12,255,0,2.000000,28.000000,373099.250000,63.000000,1.000000
440422.50999023,4464173.34999268,6.34000015,16,255,0,2.000000,28.000000,373099.343750,63.000000,1.000000
440422.47999146,4464173.02998535,6.40000010,19,255,0,2.000000,12.000000,373099.343750,63.000000,1.000000
440420.77999451,4464173.08000366,4.80000019,0,205,49,2.000000,26.000000,373099.531250,63.000000,1.000000
440421.25999023,4464173.24998657,4.94999981,0,212,42,2.000000,10.000000,373099.625000,63.000000,1.000000
440421.38000061,4464173.08000366,5.86999989,0,251,3,2.000000,10.000000,373099.625000,63.000000,1.000000
440421.41999390,4464173.00999634,6.25000000,12,255,0,2.000000,26.000000,373099.625000,63.000000,1.000000
440421.63000061,4464173.52000610,4.90999985,0,210,44,2.000000,26.000000,373099.750000,63.000000,1.000000
440421.74999573,4464173.12999146,6.13999987,8,255,0,2.000000,10.000000,373099.750000,63.000000,1.000000
440422.49000122,4464173.14000122,6.42999983,20,255,0,2.000000,26.000000,373099.937500,63.000000,1.000000
440421.44999268,4464173.93998901,5.01000023,0,214,40,2.000000,8.000000,373100.125000,63.000000,1.000000
440421.41999390,4464173.71998779,5.05000019,0,216,38,2.000000,24.000000,373100.125000,63.000000,1.000000
440424.11999084,4464173.34999268,6.65999985,30,255,0,2.000000,26.000000,373100.125000,63.000000,1.000000
440421.52999451,4464173.24998657,6.11000013,6,255,0,2.000000,8.000000,373100.125000,63.000000,1.000000
440421.52999451,4464173.08000366,6.25000000,12,255,0,2.000000,24.000000,373100.125000,63.000000,1.000000
440421.30999329,4464173.97999756,5.05000019,0,216,38,2.000000,22.000000,373100.625000,63.000000,1.000000
440421.33999207,4464173.17000000,5.90000010,0,252,2,2.000000,22.000000,373100.625000,63.000000,1.000000
440421.41999390,4464173.02998535,6.38999987,18,255,0,2.000000,6.000000,373100.625000,63.000000,1.000000
440421.88999512,4464173.24998657,6.50000000,23,255,0,2.000000,6.000000,373100.750000,63.000000,1.000000
440422.29999878,4464173.33000366,6.26999998,13,255,0,2.000000,22.000000,373100.843750,63.000000,1.000000
440422.27000000,4464173.03999512,6.40000010,19,255,0,2.000000,6.000000,373100.843750,63.000000,1.000000
440423.50999023,4464173.39000122,6.25000000,12,255,0,2.000000,22.000000,373101.125000,63.000000,1.000000
440420.63000061,4464173.21998779,4.90000010,0,210,44,2.000000,20.000000,373101.125000,50.000000,1.000000
440421.38000061,4464173.92000000,5.07000017,0,217,37,2.000000,4.000000,373101.218750,50.000000,1.000000
440421.50999023,4464173.49000732,5.92000008,0,253,1,2.000000,20.000000,373101.218750,50.000000,1.000000
440421.42998840,4464173.09999268,5.92000008,0,253,1,2.000000,4.000000,373101.250000,50.000000,1.000000
440422.02000000,4464173.09999268,6.34999990,17,255,0,2.000000,4.000000,373101.343750,50.000000,1.000000
440422.61999084,4464173.39000122,6.17999983,9,255,0,2.000000,20.000000,373101.437500,50.000000,1.000000
440422.61999084,4464173.15001099,6.42000008,20,255,0,2.000000,4.000000,373101.437500,50.000000,1.000000
440421.71999695,4464173.34001343,6.13000011,7,255,0,2.000000,2.000000,373101.718750,94.000000,1.000000
440420.68999817,4464173.31999390,5.01000023,0,214,40,2.000000,16.000000,373102.125000,63.000000,1.000000
440421.27999451,4464174.18998901,4.90000010,0,210,44,2.000000,16.000000,373102.218750,63.000000,1.000000
440421.32999756,4464173.37999146,5.94999981,0,255,0,2.000000,16.000000,373102.250000,63.000000,1.000000
440421.52999451,4464173.58000366,5.03999996,0,216,38,2.000000,0.000000,373102.343750,63.000000,1.000000
440421.85999634,4464173.44999878,6.57999992,26,255,0,2.000000,0.000000,373102.343750,63.000000,1.000000
440422.75999023,4464173.28999512,6.50000000,23,255,0,3.000000,15.000000,373178.593750,63.000000,1.000000
440422.74000122,4464173.37999146,6.55999994,26,255,0,3.000000,29.000000,373179.093750,51.000000,1.000000
440422.46999695,4464174.06999390,4.98000002,0,213,41,3.000000,13.000000,373179.093750,49.000000,1.000000
440422.49000122,4464173.92000000,5.40000010,0,231,23,3.000000,27.000000,373179.593750,63.000000,1.000000
440421.71999695,4464172.86000244,5.42999983,0,232,22,3.000000,27.000000,373179.781250,63.000000,1.000000
440421.69999268,4464173.15001099,5.05999994,0,216,38,3.000000,11.000000,373179.781250,63.000000,1.000000
440422.65999939,4464173.18000977,6.51999998,24,255,0,3.000000,9.000000,373180.093750,63.000000,1.000000
440421.77999451,4464173.40999023,4.88000011,0,209,45,3.000000,7.000000,373180.781250,63.000000,1.000000
440421.55999329,4464172.99000732,5.48999977,0,235,19,3.000000,5.000000,373181.375000,63.000000,1.000000
440422.49000122,4464173.33000366,6.38999987,18,255,0,3.000000,3.000000,373181.687500,63.000000,1.000000
440422.46999695,4464173.81999390,5.44999981,0,233,21,3.000000,19.000000,373181.687500,63.000000,1.000000
440421.82999756,4464172.90999023,6.03000021,3,255,0,3.000000,17.000000,373182.281250,63.000000,1.000000
440422.65999939,4464173.34999268,6.63000011,29,255,0,3.000000,30.000000,373182.593750,63.000000,1.000000
440422.74999573,4464173.15001099,6.57999992,26,255,0,3.000000,28.000000,373183.000000,63.000000,1.000000
440422.11999084,4464173.02998535,6.46000004,21,255,0,3.000000,8.000000,373184.187500,63.000000,1.000000
440421.97999146,4464173.06999390,5.34000015,0,228,26,3.000000,24.000000,373184.281250,63.000000,1.000000
440422.70998718,4464173.25999634,6.65999985,30,255,0,3.000000,22.000000,373184.593750,63.000000,1.000000
440421.92998840,4464173.18998901,5.36000013,0,229,25,3.000000,6.000000,373184.781250,63.000000,1.000000
440422.33999207,4464173.75999634,5.50000000,0,235,19,3.000000,20.000000,373185.281250,52.000000,1.000000
440421.64998962,4464172.94999878,5.55000019,0,237,17,3.000000,18.000000,373186.000000,98.000000,1.000000
440425.21999695,4464174.65999023,5.86999989,0,251,3,2.000000,30.000000,373099.343750,63.000000,1.000000
440426.77999451,4464175.68000977,5.46999979,0,234,20,2.000000,20.000000,373102.125000,50.000000,1.000000
440426.06998779,4464175.40999023,4.53000021,0,194,60,3.000000,8.000000,373183.593750,63.000000,1.000000
440424.58999207,4464173.99000732,6.19999981,10,255,0,2.000000,21.000000,373097.531250,63.000000,1.000000
440425.57999756,4464174.40999023,5.98000002,1,255,0,2.000000,24.000000,373100.937500,63.000000,1.000000
440425.99999573,4464174.83000366,6.48999977,23,255,0,2.000000,31.000000,373094.843750,63.000000,1.000000
440427.13999512,4464174.89000122,4.63999987,0,198,56,2.000000,9.000000,373096.718750,63.000000,1.000000
440424.89998962,4464174.86000244,5.34999990,0,229,25,2.000000,1.000000,373098.625000,63.000000,1.000000
440426.75999023,4464174.97999756,4.59000015,0,196,58,2.000000,30.000000,373099.625000,63.000000,1.000000
440425.93999817,4464175.80000488,4.67000008,0,200,54,2.000000,12.000000,373100.031250,63.000000,1.000000
440427.50999023,4464175.61000244,6.19999981,10,255,0,3.000000,25.000000,373179.093750,63.000000,1.000000
440428.35999634,4464174.99000732,4.67000008,0,200,54,3.000000,12.000000,373182.093750,63.000000,1.000000
440425.71999695,4464174.37001221,5.88999987,0,252,2,2.000000,13.000000,373095.343750,47.000000,1.000000
440425.69999268,4464174.14000122,5.96999979,0,255,0,2.000000,26.000000,373100.437500,63.000000,1.000000
440424.97999146,4464174.15999023,5.69000006,0,243,11,3.000000,13.000000,373178.593750,48.000000,1.000000
440426.04999878,4464174.96000854,6.61000013,28,255,0,2.000000,23.000000,373097.218750,63.000000,1.000000
440424.93999817,4464174.18000977,5.07999992,0,217,37,2.000000,13.000000,373095.125000,46.000000,1.000000
440426.14998962,4464174.44999878,6.28999996,14,255,0,2.000000,29.000000,373095.437500,47.000000,1.000000
440424.41999390,4464174.06999390,5.76999998,0,247,7,2.000000,9.000000,373096.125000,63.000000,1.000000
440426.88000061,4464173.34001343,6.59999990,27,255,0,2.000000,9.000000,373096.718750,63.000000,1.000000
440424.41999390,4464173.61000244,6.40000010,19,255,0,2.000000,7.000000,373096.843750,63.000000,1.000000
440424.88999512,4464174.33000366,6.46000004,21,255,0,2.000000,7.000000,373097.031250,63.000000,1.000000
440426.05999329,4464173.83000366,5.19999981,0,222,32,2.000000,23.000000,373097.218750,63.000000,1.000000
440426.63000061,4464173.49000732,5.96000004,0,255,0,2.000000,1.000000,373099.125000,63.000000,1.000000
440425.69999268,4464174.47999756,5.90000010,0,252,2,2.000000,0.000000,373103.031250,63.000000,1.000000
440427.77000000,4464173.40999023,6.25000000,12,255,0,3.000000,11.000000,373178.593750,63.000000,1.000000
440425.72999146,4464173.58000366,6.42000008,20,255,0,3.000000,27.000000,373178.875000,63.000000,1.000000
440426.99999573,4464174.47999756,6.09999990,6,255,0,3.000000,23.000000,373179.687500,63.000000,1.000000
440425.11999084,4464174.05000488,5.38000011,0,230,24,3.000000,19.000000,373181.187500,63.000000,1.000000
440424.41999390,4464174.43000977,5.40000010,0,231,23,3.000000,1.000000,373181.781250,63.000000,1.000000
440427.15999939,4464174.84001343,5.17999983,0,222,32,1.000000,13.000000,373050.468750,45.000000,1.000000
440426.71999695,4464174.78999512,6.11999989,7,255,0,2.000000,31.000000,373094.937500,63.000000,1.000000
440425.91999390,4464175.42000000,4.50000000,0,192,62,2.000000,29.000000,373095.343750,47.000000,1.000000
440426.08999207,4464174.81999390,6.63000011,29,255,0,2.000000,13.000000,373095.437500,48.000000,1.000000
440426.00999023,4464174.86000244,6.53999996,25,255,0,2.000000,11.000000,373095.937500,63.000000,1.000000
440426.43999817,4464175.39000122,5.40000010,0,231,23,2.000000,5.000000,373097.937500,63.000000,1.000000
440426.15999939,4464175.56999390,5.21000004,0,223,31,2.000000,19.000000,373098.437500,63.000000,1.000000
440426.02000000,4464175.18000977,5.94999981,0,255,0,2.000000,1.000000,373098.937500,63.000000,1.000000
440425.83999207,4464175.62999146,4.71999979,0,201,53,2.000000,14.000000,373099.437500,63.000000,1.000000
440426.85000183,4464175.00999634,4.71999979,0,201,53,2.000000,28.000000,373100.125000,63.000000,1.000000
440425.81998779,4464175.69999878,4.65000010,0,198,56,2.000000,10.000000,373100.437500,63.000000,1.000000
440426.89998962,4464174.71998779,6.61000013,28,255,0,2.000000,26.000000,373100.625000,63.000000,1.000000
440426.81998779,4464175.18000977,4.69999981,0,201,53,2.000000,8.000000,373101.218750,63.000000,1.000000
440427.21999695,4464175.19999878,4.51000023,0,192,62,2.000000,22.000000,373101.843750,63.000000,1.000000
440425.22999146,4464174.97999756,5.98000002,1,255,0,2.000000,4.000000,373101.937500,50.000000,1.000000
440427.10000183,4464175.12999146,4.51000023,0,192,62,2.000000,20.000000,373102.343750,50.000000,1.000000
440425.24999573,4464175.08000366,4.53000021,0,194,60,2.000000,16.000000,373102.937500,63.000000,1.000000
440426.06998779,4464175.55000488,5.98000002,1,255,0,2.000000,0.000000,373103.250000,63.000000,1.000000
440427.88999512,4464174.75999634,6.65000010,29,255,0,3.000000,15.000000,373177.500000,63.000000,1.000000
440427.52999451,4464175.27000610,6.46000004,21,255,0,3.000000,13.000000,373178.000000,48.000000,1.000000
440426.75999023,4464175.58000366,5.86000013,0,251,3,3.000000,13.000000,373178.093750,48.000000,1.000000
440427.53998901,4464175.40999023,6.48000002,23,255,0,3.000000,11.000000,373178.593750,63.000000,1.000000
440427.82999756,4464174.93998901,6.65000010,29,255,0,3.000000,25.000000,373179.000000,63.000000,1.000000
440428.50999023,4464175.08000366,4.46999979,0,191,63,3.000000,1.000000,373181.000000,63.000000,1.000000
440426.08999207,4464175.55000488,4.57000017,0,195,59,3.000000,12.000000,373182.500000,63.000000,1.000000
440428.38000061,4464174.81999390,4.57000017,0,195,59,3.000000,10.000000,373182.593750,63.000000,1.000000
440425.94999268,4464175.81001465,4.51000023,0,192,62,3.000000,10.000000,373182.875000,63.000000,1.000000
440426.03998901,4464175.59001343,4.65000010,0,198,56,3.000000,24.000000,373183.593750,63.000000,1.000000
440426.50999023,4464175.21000854,5.11000013,0,219,35,3.000000,22.000000,373184.000000,63.000000,1.000000
440424.60000183,4464174.08000366,6.59999990,27,255,0,2.000000,14.000000,373099.250000,63.000000,1.000000
440425.85000183,4464175.47999756,4.73000002,0,202,52,2.000000,17.000000,373098.843750,63.000000,1.000000
440427.47999146,4464174.93000977,5.03999996,0,216,38,3.000000,25.000000,373179.093750,63.000000,1.000000
440428.40999939,4464174.90999023,4.59999990,0,197,57,3.000000,3.000000,373180.375000,63.000000,1.000000
440424.66999390,4464174.43998901,4.61999989,0,198,56,2.000000,13.000000,373095.031250,46.000000,1.000000
440424.61999084,4464174.47999756,4.63000011,0,198,56,2.000000,7.000000,373096.937500,63.000000,1.000000
440424.95998718,4464174.77998535,5.26000023,0,225,29,2.000000,9.000000,373096.218750,63.000000,1.000000
440427.27000000,4464174.99000732,4.63999987,0,198,56,2.000000,17.000000,373099.250000,63.000000,1.000000
440425.85000183,4464175.47999756,4.94000006,0,211,43,2.000000,30.000000,373099.437500,63.000000,1.000000
440425.82999756,4464175.56999390,4.92000008,0,210,44,2.000000,26.000000,373100.437500,63.000000,1.000000
440428.17998840,4464175.06001465,4.46999979,0,191,63,3.000000,27.000000,373178.375000,63.000000,1.000000
440427.39998962,4464175.06999390,4.80000019,0,205,49,3.000000,27.000000,373178.593750,63.000000,1.000000
440428.02000000,4464174.99998657,4.55999994,0,195,59,3.000000,25.000000,373178.875000,63.000000,1.000000
440428.25999023,4464175.09001343,4.48999977,0,192,62,3.000000,21.000000,373180.000000,63.000000,1.000000
440427.77999451,4464174.87001221,4.98000002,0,213,41,3.000000,8.000000,373183.093750,63.000000,1.000000
440424.65999939,4464174.30000488,4.86000013,0,208,46,2.000000,29.000000,373095.031250,46.000000,1.000000
440424.90999939,4464174.59999268,5.23999977,0,224,30,2.000000,29.000000,373095.125000,47.000000,1.000000
440426.27999451,4464173.78999512,5.51999998,0,236,18,2.000000,13.000000,373095.437500,46.000000,1.000000
440427.29999878,4464174.62001221,4.59000015,0,196,58,2.000000,13.000000,373095.531250,45.000000,1.000000
440426.18999817,4464173.47999756,5.15999985,0,221,33,2.000000,27.000000,373095.937500,63.000000,1.000000
440425.96999695,4464173.64000122,5.40999985,0,231,23,2.000000,9.000000,373096.531250,63.000000,1.000000
440426.03998901,4464173.49998657,5.26999998,0,225,29,2.000000,7.000000,373097.218750,63.000000,1.000000
440424.68999817,4464174.59999268,4.61000013,0,197,57,2.000000,21.000000,373097.531250,63.000000,1.000000
440425.97999146,4464173.75999634,5.34999990,0,229,25,2.000000,21.000000,373097.843750,63.000000,1.000000
440426.28998901,4464173.25999634,5.61000013,0,240,14,2.000000,21.000000,373097.937500,63.000000,1.000000
440425.99999573,4464173.65001099,5.38000011,0,230,24,2.000000,19.000000,373098.437500,63.000000,1.000000
440424.85999634,4464174.53999512,5.13000011,0,219,35,2.000000,17.000000,373098.625000,63.000000,1.000000
440426.14998962,4464173.65001099,5.28000021,0,226,28,2.000000,1.000000,373099.031250,63.000000,1.000000
440426.15999939,4464173.52998535,5.21999979,0,223,31,2.000000,30.000000,373099.531250,63.000000,1.000000
440424.74999573,4464174.43000977,4.88999987,0,209,45,2.000000,10.000000,373100.218750,63.000000,1.000000
440426.21999695,4464173.86000244,5.32000017,0,228,26,2.000000,4.000000,373102.125000,49.000000,1.000000
440427.60000183,4464174.11000244,5.90000010,0,252,2,3.000000,29.000000,373178.000000,48.000000,1.000000
440426.42998840,4464174.94999878,4.69000006,0,201,53,2.000000,29.000000,373095.437500,46.000000,1.000000
440427.30999329,4464174.96998779,4.59999990,0,197,57,2.000000,29.000000,373095.531250,46.000000,1.000000
440427.42998840,4464174.94999878,4.53000021,0,194,60,2.000000,25.000000,373096.843750,63.000000,1.000000
440427.46999695,4464174.96000854,4.53999996,0,194,60,2.000000,9.000000,373096.937500,63.000000,1.000000
440426.36999084,4464174.96998779,4.59999990,0,197,57,2.000000,23.000000,373097.343750,63.000000,1.000000
440426.97999146,4464174.99000732,4.59999990,0,197,57,2.000000,23.000000,373097.437500,63.000000,1.000000
440426.95998718,4464174.74000732,4.84999990,0,207,47,2.000000,7.000000,373097.437500,63.000000,1.000000
440427.47999146,4464174.77998535,4.61000013,0,197,57,2.000000,7.000000,373097.531250,63.000000,1.000000
440425.85999634,4464175.67000000,4.63000011,0,198,56,2.000000,5.000000,373097.718750,63.000000,1.000000
440425.83999207,4464175.44999878,4.65999985,0,199,55,2.000000,21.000000,373097.718750,63.000000,1.000000
440426.92998840,4464175.02000610,4.48999977,0,192,62,2.000000,21.000000,373098.031250,63.000000,1.000000
440427.49999573,4464174.94999878,4.50000000,0,192,62,2.000000,21.000000,373098.125000,63.000000,1.000000
440425.86999084,4464175.68998901,4.69999981,0,201,53,2.000000,1.000000,373098.843750,63.000000,1.000000
440425.99999573,4464175.53999512,4.51000023,0,192,62,2.000000,17.000000,373098.937500,63.000000,1.000000
440427.29999878,4464175.24998657,4.50000000,0,192,62,2.000000,1.000000,373099.250000,63.000000,1.000000
440425.86999084,4464175.52998535,4.55999994,0,195,59,2.000000,28.000000,373100.031250,63.000000,1.000000
440426.74000122,4464174.96000854,4.73000002,0,202,52,2.000000,10.000000,373100.625000,63.000000,1.000000
440427.35999634,4464175.09001343,4.51999998,0,193,61,2.000000,8.000000,373101.343750,63.000000,1.000000
440425.85000183,4464175.61000244,4.59000015,0,196,58,2.000000,22.000000,373101.531250,63.000000,1.000000
440426.97999146,4464174.96998779,4.73000002,0,202,52,2.000000,22.000000,373101.718750,63.000000,1.000000
440427.13000061,4464175.34999268,4.46000004,0,191,63,2.000000,4.000000,373102.343750,50.000000,1.000000
440427.49000122,4464175.15999023,4.46999979,0,191,63,2.000000,4.000000,373102.437500,50.000000,1.000000
440427.27999451,4464175.34001343,4.46999979,0,191,63,2.000000,0.000000,373103.531250,63.000000,1.000000
440428.49000122,4464174.96998779,4.55000019,0,195,59,3.000000,29.000000,373177.781250,46.000000,1.000000
440428.46999695,4464175.25999634,4.48999977,0,192,62,3.000000,13.000000,373177.781250,47.000000,1.000000
440427.97999146,4464174.96000854,4.84000015,0,207,47,3.000000,13.000000,373177.875000,47.000000,1.000000
440427.93999817,4464175.18000977,4.65000010,0,198,56,3.000000,29.000000,373177.875000,47.000000,1.000000
440427.33999207,4464174.90999023,5.05999994,0,216,38,3.000000,29.000000,373178.000000,47.000000,1.000000
440427.29999878,4464175.22999756,4.86000013,0,208,46,3.000000,13.000000,373178.000000,47.000000,1.000000
440426.04999878,4464175.58000366,4.50000000,0,192,62,3.000000,29.000000,373178.187500,47.000000,1.000000
440425.82999756,4464175.53999512,4.57000017,0,195,59,3.000000,29.000000,373178.281250,47.000000,1.000000
440427.88000061,4464175.02000610,4.76000023,0,204,50,3.000000,27.000000,373178.500000,63.000000,1.000000
440427.69999268,4464174.90001099,5.03000021,0,215,39,3.000000,25.000000,373179.000000,63.000000,1.000000
440427.49000122,4464174.72999756,4.98000002,0,213,41,3.000000,9.000000,373179.093750,63.000000,1.000000
440426.99999573,4464174.68000977,5.90999985,0,253,1,3.000000,25.000000,373179.187500,63.000000,1.000000
440428.42998840,4464174.90999023,4.61000013,0,197,57,3.000000,23.000000,373179.375000,63.000000,1.000000
440428.39998962,4464175.19999878,4.51000023,0,192,62,3.000000,7.000000,373179.375000,63.000000,1.000000
440428.22999146,4464175.02998535,4.46000004,0,191,63,3.000000,23.000000,373179.500000,63.000000,1.000000
440428.18999817,4464175.36000244,4.48000002,0,192,62,3.000000,7.000000,373179.500000,63.000000,1.000000
440428.08999207,4464175.09001343,4.57000017,0,195,59,3.000000,1.000000,373181.093750,63.000000,1.000000
440426.14998962,4464175.00999634,4.96999979,0,213,41,3.000000,17.000000,373181.500000,63.000000,1.000000
440426.13000061,4464175.46000854,4.59000015,0,196,58,3.000000,1.000000,373181.500000,63.000000,1.000000
440427.79999878,4464174.99998657,4.88999987,0,209,45,3.000000,14.000000,373181.687500,63.000000,1.000000
440425.95998718,4464175.62999146,4.61000013,0,197,57,3.000000,30.000000,373182.000000,63.000000,1.000000
440428.33999207,4464175.18998901,4.53000021,0,194,60,3.000000,28.000000,373182.093750,63.000000,1.000000
440427.67998840,4464174.94999878,5.17000008,0,221,33,3.000000,12.000000,373182.187500,63.000000,1.000000
440428.30999329,4464175.33000366,4.53999996,0,194,60,3.000000,10.000000,373182.593750,63.000000,1.000000
440425.94999268,4464175.43000977,4.61000013,0,197,57,3.000000,26.000000,373182.875000,63.000000,1.000000
440426.03998901,4464174.99998657,4.98000002,0,213,41,3.000000,8.000000,373183.687500,63.000000,1.000000
440426.10999634,4464175.34999268,4.57000017,0,195,59,3.000000,24.000000,373183.687500,63.000000,1.000000
440426.07999756,4464175.68000977,4.61000013,0,197,57,3.000000,8.000000,373183.687500,63.000000,1.000000
440426.13000061,4464175.46998779,4.55000019,0,195,59,3.000000,22.000000,373184.093750,63.000000,1.000000
440428.38999512,4464174.87001221,4.67000008,0,200,54,3.000000,20.000000,373184.187500,50.000000,1.000000
440426.10000183,4464175.49998657,4.65000010,0,198,56,3.000000,20.000000,373184.593750,50.000000,1.000000
440426.08999207,4464175.52000610,4.69999981,0,201,53,3.000000,0.000000,373185.687500,63.000000,1.000000
440424.39998962,4464173.89000122,5.90000010,0,252,2,1.000000,27.000000,373051.875000,63.000000,1.000000
440424.39998962,4464173.74000732,6.46999979,22,255,0,2.000000,29.000000,373095.031250,47.000000,1.000000
440424.88000061,4464174.12999146,6.53000021,24,255,0,2.000000,23.000000,373097.031250,63.000000,1.000000
440426.75999023,4464173.44999878,6.13999987,8,255,0,2.000000,21.000000,373098.031250,63.000000,1.000000
440424.38999512,4464174.17000000,5.80000019,0,248,6,2.000000,28.000000,373099.750000,63.000000,1.000000
440425.78998901,4464174.12999146,6.07999992,5,255,0,2.000000,28.000000,373100.031250,63.000000,1.000000
440425.68999817,4464173.81999390,5.94999981,0,255,0,2.000000,6.000000,373101.531250,63.000000,1.000000
440425.06998779,4464174.37001221,6.13999987,8,255,0,3.000000,19.000000,373181.187500,63.000000,1.000000
440427.63999512,4464174.78999512,6.63000011,29,255,0,1.000000,7.000000,373052.687500,63.000000,1.000000
440424.88999512,4464174.87001221,5.36000013,0,229,25,2.000000,13.000000,373095.125000,47.000000,1.000000
440426.47999146,4464174.92000000,6.28000021,14,255,0,2.000000,27.000000,373096.031250,63.000000,1.000000
440425.43999817,4464174.71000854,5.67999983,0,243,11,2.000000,9.000000,373096.437500,63.000000,1.000000
440425.99999573,4464175.27998535,5.15000010,0,220,34,2.000000,25.000000,373096.531250,63.000000,1.000000
440425.24999573,4464174.83000366,5.82999992,0,249,5,2.000000,19.000000,373098.250000,63.000000,1.000000
440425.45998718,4464174.77000610,6.03000021,3,255,0,2.000000,1.000000,373098.750000,63.000000,1.000000
440426.77999451,4464174.78999512,6.32000017,15,255,0,2.000000,1.000000,373099.125000,63.000000,1.000000
440426.41999390,4464174.78999512,6.44000006,20,255,0,2.000000,14.000000,373099.531250,63.000000,1.000000
440426.52000000,4464175.15999023,5.67000008,0,243,11,2.000000,24.000000,373101.125000,63.000000,1.000000
440426.06998779,4464175.59001343,5.84000015,0,250,4,2.000000,0.000000,373103.125000,63.000000,1.000000
440427.85000183,4464174.97999756,6.61999989,29,255,0,3.000000,31.000000,373177.500000,63.000000,1.000000
440427.74000122,4464175.40001099,6.11999989,7,255,0,3.000000,15.000000,373177.500000,63.000000,1.000000
440426.77000000,4464175.40001099,5.94000006,0,255,0,3.000000,24.000000,373183.187500,63.000000,1.000000
440424.75999023,4464174.27998535,6.61000013,28,255,0,2.000000,20.000000,373101.843750,50.000000,1.000000
440425.47999146,4464174.06001465,6.59999990,27,255,0,3.000000,10.000000,373183.000000,63.000000,1.000000
440424.38999512,4464173.87001221,5.73000002,0,245,9,1.000000,29.000000,373050.968750,45.000000,1.000000
440424.57999756,4464173.62001221,6.48000002,23,255,0,2.000000,31.000000,373094.531250,63.000000,1.000000
440425.02999451,4464174.24000732,6.51000023,23,255,0,2.000000,31.000000,373094.625000,63.000000,1.000000
440426.69999268,4464174.49998657,6.23999977,12,255,0,2.000000,15.000000,373094.937500,63.000000,1.000000
440426.74000122,4464173.28999512,6.11000013,6,255,0,2.000000,15.000000,373094.937500,63.000000,1.000000
440424.46999695,4464174.37001221,5.84999990,0,250,4,2.000000,13.000000,373095.031250,47.000000,1.000000
440424.45998718,4464174.18998901,5.98000002,1,255,0,2.000000,29.000000,373095.031250,47.000000,1.000000
