//X,Y,Z,R,G,B,Point Source ID,User Data,Time,Intensity,Classification
440456.92998840,4464114.36000244,6.73999977,33,255,0,4.000000,30.000000,373232.625000,63.000000,1.000000
440449.96999695,4464114.47000305,6.78000021,35,255,0,4.000000,8.000000,373232.625000,63.000000,1.000000
440449.94999268,4464114.28999512,6.73999977,33,255,0,4.000000,24.000000,373232.625000,63.000000,1.000000
440449.88000061,4464113.33000366,6.80999994,36,255,0,4.000000,24.000000,373232.625000,63.000000,1.000000
440456.72999146,4464112.45999329,6.71999979,32,255,0,4.000000,30.000000,373232.625000,63.000000,1.000000
440456.69999268,4464112.17000000,6.69999981,32,255,0,4.000000,14.000000,373232.625000,63.000000,1.000000
440455.44999268,4464117.06999390,7.15999985,52,255,0,4.000000,12.000000,373232.718750,63.000000,1.000000
440450.55999329,4464114.30000488,6.94000006,42,255,0,4.000000,8.000000,373232.718750,63.000000,1.000000
440456.49000122,4464114.58999817,6.84000015,38,255,0,4.000000,28.000000,373232.906250,63.000000,1.000000
440456.44999268,4464114.13000671,6.78999996,35,255,0,4.000000,28.000000,373232.906250,63.000000,1.000000
440449.47999146,4464114.70999329,6.75000000,34,255,0,4.000000,6.000000,373232.906250,63.000000,1.000000
440456.24000122,4464111.80999939,6.76999998,35,255,0,4.000000,28.000000,373232.906250,63.000000,1.000000
440450.00999023,4464115.41000549,6.92000008,41,255,0,4.000000,6.000000,373233.000000,63.000000,1.000000
440456.93999817,4464114.61000244,6.88000011,39,255,0,4.000000,12.000000,373233.000000,63.000000,1.000000
440453.00999023,4464118.11000244,6.78000021,35,255,0,4.000000,24.000000,373233.125000,63.000000,1.000000
440455.28998901,4464117.05000488,7.03000021,46,255,0,4.000000,10.000000,373233.125000,63.000000,1.000000
440450.42998840,4464114.50999634,6.92999983,41,255,0,4.000000,22.000000,373233.125000,63.000000,1.000000
440450.41999390,4464114.25000183,6.88999987,40,255,0,4.000000,6.000000,373233.125000,63.000000,1.000000
440455.82999756,4464117.22999756,6.90999985,41,255,0,4.000000,10.000000,373233.218750,63.000000,1.000000
440456.78998901,4464115.50999634,6.90000010,41,255,0,4.000000,10.000000,373233.406250,63.000000,1.000000
440456.77999451,4464115.30000488,6.80000019,36,255,0,4.000000,26.000000,373233.406250,63.000000,1.000000
440456.71999695,4464114.56999390,6.86999989,39,255,0,4.000000,10.000000,373233.406250,63.000000,1.000000
440449.63999512,4464114.80000488,6.75000000,34,255,0,4.000000,20.000000,373233.406250,58.000000,1.000000
440450.44999268,4464114.36000244,6.92000008,41,255,0,4.000000,20.000000,373233.500000,58.000000,1.000000
440453.40999939,4464118.14000122,7.03000021,46,255,0,4.000000,6.000000,373233.625000,63.000000,1.000000
440455.66999390,4464116.39999573,6.69000006,32,255,0,4.000000,8.000000,373233.625000,63.000000,1.000000
440453.93999817,4464117.99000732,6.71999979,32,255,0,4.000000,22.000000,373233.718750,63.000000,1.000000
440453.90999939,4464117.50000183,6.73000002,33,255,0,4.000000,22.000000,373233.718750,63.000000,1.000000
440456.68999817,4464115.70999329,6.80000019,36,255,0,4.000000,24.000000,373233.812500,63.000000,1.000000
440456.60999634,4464114.80999939,6.80999994,36,255,0,4.000000,24.000000,373233.812500,63.000000,1.000000
440456.60000183,4464114.50000183,6.88999987,40,255,0,4.000000,8.000000,373233.812500,63.000000,1.000000
440456.35000183,4464111.55999939,6.73000002,33,255,0,4.000000,24.000000,373233.812500,63.000000,1.000000
440455.24999573,4464117.44999878,7.19999981,53,255,0,4.000000,22.000000,373233.906250,63.000000,1.000000
440455.20998718,4464117.20999329,7.03999996,47,255,0,4.000000,6.000000,373233.906250,63.000000,1.000000
440455.19999268,4464117.00000183,7.11000013,50,255,0,4.000000,22.000000,373233.906250,63.000000,1.000000
440455.64998962,4464117.24000732,7.03999996,47,255,0,4.000000,6.000000,373234.000000,63.000000,1.000000
440453.80999329,4464117.70999329,6.96999979,44,255,0,4.000000,20.000000,373234.125000,58.000000,1.000000
440456.74999573,4464115.56999390,6.73999977,33,255,0,4.000000,6.000000,373234.218750,63.000000,1.000000
440456.74000122,4464115.36999695,6.76999998,35,255,0,4.000000,22.000000,373234.218750,63.000000,1.000000
440456.63999512,4464113.95999329,6.80999994,36,255,0,4.000000,22.000000,373234.218750,63.000000,1.000000
440449.39998962,4464114.67000000,6.73000002,33,255,0,4.000000,0.000000,373234.218750,63.000000,1.000000
440456.45998718,4464111.83999817,6.76999998,35,255,0,4.000000,6.000000,373234.218750,63.000000,1.000000
440457.10999634,4464115.25000183,6.94999981,42,255,0,4.000000,22.000000,373234.312500,63.000000,1.000000
440457.03998901,4464115.03000061,6.71000004,32,255,0,4.000000,6.000000,373234.312500,63.000000,1.000000
440456.99999573,4464114.55999939,6.76999998,35,255,0,4.000000,6.000000,373234.312500,63.000000,1.000000
440449.83999207,4464115.27000610,6.90999985,41,255,0,4.000000,16.000000,373234.312500,63.000000,1.000000
440456.85999634,4464112.47000305,6.78999996,35,255,0,4.000000,22.000000,373234.312500,63.000000,1.000000
440456.85000183,4464112.19000427,6.84000015,38,255,0,4.000000,6.000000,373234.312500,63.000000,1.000000
440455.27000000,4464117.78000061,7.30999994,58,255,0,4.000000,20.000000,373234.406250,58.000000,1.000000
440455.11999084,4464117.44999878,6.76999998,35,255,0,4.000000,20.000000,373234.406250,58.000000,1.000000
440455.14998962,4464117.09999268,7.03999996,47,255,0,4.000000,4.000000,373234.406250,58.000000,1.000000
440455.80999329,4464117.33000366,6.98999977,44,255,0,4.000000,4.000000,373234.500000,58.000000,1.000000
440455.77999451,4464117.14999573,7.05000019,47,255,0,4.000000,20.000000,373234.500000,58.000000,1.000000
440454.05999329,4464118.09999268,7.07999992,48,255,0,4.000000,18.000000,373234.625000,100.000000,1.000000
440456.07999756,4464112.06999390,6.75000000,34,255,0,4.000000,20.000000,373234.625000,59.000000,1.000000
440456.05999329,4464111.61000244,6.76999998,35,255,0,4.000000,20.000000,373234.625000,59.000000,1.000000
440456.81998779,4464115.75000183,6.92000008,41,255,0,4.000000,4.000000,373234.718750,58.000000,1.000000
440456.79999878,4464115.55000488,6.92999983,41,255,0,4.000000,20.000000,373234.718750,58.000000,1.000000
440456.74000122,4464114.78999512,6.84000015,38,255,0,4.000000,4.000000,373234.718750,58.000000,1.000000
440456.74000122,4464114.58999817,6.90000010,41,255,0,4.000000,20.000000,373234.718750,58.000000,1.000000
440456.50999023,4464112.30999939,6.71000004,32,255,0,4.000000,20.000000,373234.718750,59.000000,1.000000
440456.89998962,4464115.50999634,6.98000002,44,255,0,4.000000,4.000000,373234.812500,58.000000,1.000000
440456.82999756,4464114.86000244,7.03000021,46,255,0,4.000000,20.000000,373234.812500,58.000000,1.000000
440456.74000122,4464113.94000427,6.71000004,32,255,0,4.000000,20.000000,373234.812500,58.000000,1.000000
440456.60999634,4464112.25999634,6.80000019,36,255,0,4.000000,4.000000,373234.812500,59.000000,1.000000
440456.56998779,4464112.09999268,6.71000004,32,255,0,4.000000,20.000000,373234.812500,59.000000,1.000000
440456.55999329,4464111.61000244,6.78000021,35,255,0,4.000000,20.000000,373234.812500,59.000000,1.000000
440457.04999878,4464114.83999817,6.96999979,44,255,0,4.000000,4.000000,373234.906250,58.000000,1.000000
440457.00999023,4464114.69000427,6.82000017,37,255,0,4.000000,20.000000,373234.906250,58.000000,1.000000
440456.96999695,4464114.42000000,6.76000023,35,255,0,4.000000,4.000000,373234.906250,58.000000,1.000000
440456.82999756,4464112.53000061,6.69999981,32,255,0,4.000000,4.000000,373234.906250,58.000000,1.000000
440455.10000183,4464117.47000305,6.75000000,34,255,0,4.000000,2.000000,373235.000000,100.000000,1.000000
440456.13000061,4464112.05000488,6.75000000,34,255,0,4.000000,18.000000,373235.312500,100.000000,1.000000
440456.10999634,4464111.58000366,6.76999998,35,255,0,4.000000,18.000000,373235.312500,100.000000,1.000000
440456.74000122,4464115.75999634,6.73000002,33,255,0,4.000000,18.000000,373235.406250,100.000000,1.000000
440456.54999878,4464113.11000244,6.78999996,35,255,0,4.000000,2.000000,373235.406250,100.000000,1.000000
440457.06998779,4464114.80000488,6.84999990,38,255,0,4.000000,18.000000,373235.500000,100.000000,1.000000
440457.00999023,4464114.53999512,6.71000004,32,255,0,4.000000,2.000000,373235.500000,100.000000,1.000000
440456.90999939,4464112.42999451,6.82000017,37,255,0,4.000000,18.000000,373235.500000,100.000000,1.000000
440455.35000183,4464117.52000610,7.25000000,56,255,0,4.000000,16.000000,373235.625000,63.000000,1.000000
440455.27999451,4464117.08000366,7.13999987,50,255,0,4.000000,16.000000,373235.625000,63.000000,1.000000
440455.81998779,4464117.39000122,6.94000006,42,255,0,4.000000,0.000000,373235.718750,63.000000,1.000000
440455.81998779,4464117.17999451,7.00000000,44,255,0,4.000000,16.000000,373235.718750,63.000000,1.000000
440455.97999146,4464112.03000061,6.75000000,34,255,0,4.000000,16.000000,373235.812500,63.000000,1.000000
440456.78998901,4464114.67000000,6.88000011,39,255,0,4.000000,0.000000,373235.906250,63.000000,1.000000
440456.74000122,4464113.49000732,6.71999979,32,255,0,4.000000,16.000000,373235.906250,63.000000,1.000000
440456.80999329,4464112.19000427,6.75000000,34,255,0,5.000000,13.000000,373297.687500,57.000000,1.000000
440457.67998840,4464114.20999329,7.03000021,46,255,0,5.000000,27.000000,373297.968750,63.000000,1.000000
440457.30999329,4464112.63000671,6.73000002,33,255,0,5.000000,25.000000,373298.687500,63.000000,1.000000
440456.97999146,4464112.38000671,6.86000013,38,255,0,5.000000,25.000000,373298.781250,63.000000,1.000000
440457.02999451,4464112.05000488,6.82000017,37,255,0,5.000000,25.000000,373298.875000,63.000000,1.000000
440457.38000061,4464112.66000549,6.84000015,38,255,0,5.000000,23.000000,373299.375000,63.000000,1.000000
440457.10000183,4464111.53000061,6.94999981,42,255,0,5.000000,7.000000,373299.468750,63.000000,1.000000
440456.82999756,4464112.19000427,6.69999981,32,255,0,5.000000,23.000000,373299.562500,63.000000,1.000000
440457.70998718,4464114.27000610,7.07000017,47,255,0,5.000000,21.000000,373299.875000,63.000000,1.000000
440451.10000183,4464114.78999512,6.73999977,33,255,0,5.000000,21.000000,373301.062500,63.000000,1.000000
440457.47999146,4464113.20999329,6.78000021,35,255,0,5.000000,17.000000,373301.187500,63.000000,1.000000
440450.71999695,4464115.63000671,6.90000010,41,255,0,5.000000,5.000000,373301.187500,63.000000,1.000000
440457.74999573,4464112.34999268,6.69999981,32,255,0,5.000000,12.000000,373302.187500,63.000000,1.000000
440451.20998718,4464114.63000671,6.88000011,39,255,0,5.000000,1.000000,373302.187500,63.000000,1.000000
440450.63999512,4464114.83000366,6.82999992,38,255,0,5.000000,17.000000,373302.281250,63.000000,1.000000
440450.53998901,4464115.64999573,6.88999987,40,255,0,5.000000,17.000000,373302.281250,63.000000,1.000000
440457.21999695,4464111.61000244,6.78000021,35,255,0,5.000000,28.000000,373302.375000,63.000000,1.000000
440450.52000000,4464115.64000122,6.86999989,39,255,0,5.000000,17.000000,373302.375000,63.000000,1.000000
440450.40999939,4464115.61999695,6.80000019,36,255,0,5.000000,17.000000,373302.468750,63.000000,1.000000
440456.80999329,4464112.13000671,6.78999996,35,255,0,5.000000,28.000000,373302.687500,63.000000,1.000000
440450.79999878,4464115.27000610,6.92000008,41,255,0,5.000000,30.000000,373303.062500,63.000000,1.000000
440450.35000183,4464114.67999451,6.69000006,32,255,0,5.000000,30.000000,373303.187500,63.000000,1.000000
440450.65999939,4464114.45999329,6.71999979,32,255,0,5.000000,12.000000,373303.875000,63.000000,1.000000
440450.60000183,4464115.55999939,6.86000013,38,255,0,5.000000,28.000000,373303.875000,63.000000,1.000000
440457.60999634,4464114.70999329,7.05999994,47,255,0,5.000000,4.000000,373304.781250,58.000000,1.000000
440451.03998901,4464114.50999634,6.88000011,39,255,0,5.000000,20.000000,373305.875000,57.000000,1.000000
440449.78998901,4464117.19999878,6.80000019,36,255,0,2.000000,13.000000,373100.343750,45.000000,1.000000
440450.40999939,4464117.44000427,7.11999989,50,255,0,2.000000,29.000000,373100.531250,45.000000,1.000000
440451.74000122,4464117.11999695,7.63000011,72,255,0,2.000000,29.000000,373100.750000,45.000000,1.000000
440454.71999695,4464115.24000732,7.67000008,74,255,0,2.000000,23.000000,373103.437500,63.000000,1.000000
440450.02999451,4464112.92000000,7.30000019,58,255,0,2.000000,17.000000,373104.843750,63.000000,1.000000
440451.74000122,4464118.17000000,6.88000011,39,255,0,2.000000,17.000000,373105.031250,63.000000,1.000000
440454.53998901,4464116.22999756,6.96999979,44,255,0,2.000000,1.000000,373105.750000,63.000000,1.000000
440450.24000122,4464117.75000183,6.92000008,41,255,0,2.000000,28.000000,373106.343750,63.000000,1.000000
440457.35000183,4464112.64000122,7.13000011,50,255,0,3.000000,15.000000,373172.562500,63.000000,1.000000
440456.72999146,4464114.58999817,7.01000023,45,255,0,3.000000,31.000000,373172.656250,63.000000,1.000000
440456.80999329,4464115.28999512,7.38999987,62,255,0,3.000000,31.000000,373172.656250,63.000000,1.000000
440456.18999817,4464111.74000732,7.19999981,53,255,0,3.000000,15.000000,373172.781250,63.000000,1.000000
440456.29999878,4464113.55999939,7.28000021,56,255,0,3.000000,15.000000,373172.781250,63.000000,1.000000
440456.45998718,4464115.42999451,7.57999992,70,255,0,3.000000,15.000000,373172.781250,63.000000,1.000000
440456.33999207,4464115.56999390,6.82999992,38,255,0,3.000000,15.000000,373172.781250,63.000000,1.000000
440455.79999878,4464112.86000244,7.71999979,76,255,0,3.000000,15.000000,373172.875000,63.000000,1.000000
440455.77999451,4464113.28000061,7.46000004,65,255,0,3.000000,15.000000,373172.875000,63.000000,1.000000
440455.88000061,4464116.20999329,7.57000017,69,255,0,3.000000,31.000000,373172.875000,63.000000,1.000000
440455.00999023,4464111.09999268,7.67999983,74,255,0,3.000000,31.000000,373172.968750,63.000000,1.000000
440455.13999512,4464116.28999512,6.92000008,41,255,0,3.000000,31.000000,373172.968750,63.000000,1.000000
440454.60999634,4464111.86000244,7.65999985,73,255,0,3.000000,15.000000,373173.062500,63.000000,1.000000
440457.10999634,4464112.67999451,6.98999977,44,255,0,3.000000,29.000000,373173.062500,50.000000,1.000000
440457.17998840,4464114.19999878,7.19000006,53,255,0,3.000000,13.000000,373173.062500,51.000000,1.000000
440454.03998901,4464112.36000244,7.67000008,74,255,0,3.000000,31.000000,373173.156250,63.000000,1.000000
440456.55999329,4464112.36000244,7.07999992,48,255,0,3.000000,13.000000,373173.156250,50.000000,1.000000
440454.03998901,4464112.66000549,7.53000021,68,255,0,3.000000,15.000000,373173.156250,63.000000,1.000000
440456.63000061,4464112.80999939,7.42999983,63,255,0,3.000000,29.000000,373173.156250,50.000000,1.000000
440456.65999939,4464113.17000000,7.48000002,65,255,0,3.000000,13.000000,373173.156250,51.000000,1.000000
440456.67998840,4464114.25999634,7.48000002,65,255,0,3.000000,13.000000,373173.156250,51.000000,1.000000
440456.72999146,4464114.58999817,7.65999985,73,255,0,3.000000,29.000000,373173.156250,51.000000,1.000000
440456.74000122,4464114.95999329,7.69999981,75,255,0,3.000000,13.000000,373173.156250,52.000000,1.000000
440453.60000183,4464111.52000610,7.44999981,64,255,0,3.000000,15.000000,373173.281250,63.000000,1.000000
440453.60999634,4464111.74000732,7.42000008,62,255,0,3.000000,31.000000,373173.281250,63.000000,1.000000
440456.14998962,4464111.77000610,7.30000019,58,255,0,3.000000,13.000000,373173.281250,50.000000,1.000000
440453.64998962,4464112.14999573,7.69999981,75,255,0,3.000000,15.000000,373173.281250,63.000000,1.000000
440456.18999817,4464112.09999268,7.46999979,65,255,0,3.000000,29.000000,373173.281250,50.000000,1.000000
440453.63000061,4464112.27000610,7.51000023,67,255,0,3.000000,31.000000,373173.281250,63.000000,1.000000
440456.24000122,4464113.74000732,7.28999996,57,255,0,3.000000,29.000000,373173.281250,51.000000,1.000000
440456.32999756,4464114.33000366,7.78999996,79,255,0,3.000000,13.000000,373173.281250,51.000000,1.000000
440456.36999084,4464115.17000000,7.78000021,78,255,0,3.000000,29.000000,373173.281250,52.000000,1.000000
440456.35000183,4464115.41000549,7.61000013,71,255,0,3.000000,13.000000,373173.281250,52.000000,1.000000
440453.77999451,4464117.27000610,6.90999985,41,255,0,3.000000,15.000000,373173.281250,63.000000,1.000000
440453.47999146,4464111.56999390,7.46000004,65,255,0,3.000000,15.000000,373173.375000,63.000000,1.000000
440456.03998901,4464111.56999390,7.50000000,66,255,0,3.000000,29.000000,373173.375000,50.000000,1.000000
440453.49999573,4464112.08999817,7.55000019,68,255,0,3.000000,15.000000,373173.375000,63.000000,1.000000
440456.10000183,4464112.24000732,7.67000008,74,255,0,3.000000,29.000000,373173.375000,50.000000,1.000000
440453.49999573,4464112.27000610,7.44000006,64,255,0,3.000000,31.000000,373173.375000,63.000000,1.000000
440456.10999634,4464113.56999390,7.36000013,60,255,0,3.000000,13.000000,373173.375000,51.000000,1.000000
440456.13000061,4464113.83999817,7.42000008,62,255,0,3.000000,29.000000,373173.375000,51.000000,1.000000
440453.63999512,4464115.36000244,7.50000000,66,255,0,3.000000,15.000000,373173.375000,63.000000,1.000000
440453.72999146,4464116.09999268,7.71999979,76,255,0,3.000000,15.000000,373173.375000,63.000000,1.000000
440453.74999573,4464116.78000061,7.55999994,69,255,0,3.000000,31.000000,373173.375000,63.000000,1.000000
440453.69999268,4464117.39000122,7.07999992,48,255,0,3.000000,15.000000,373173.375000,63.000000,1.000000
440455.52000000,4464111.44000427,7.51999998,67,255,0,3.000000,13.000000,373173.468750,50.000000,1.000000
440452.99000122,4464111.94000427,7.69999981,75,255,0,3.000000,31.000000,373173.468750,63.000000,1.000000
440455.63000061,4464112.97999756,7.73000002,76,255,0,3.000000,29.000000,373173.468750,51.000000,1.000000
440455.60000183,4464113.20999329,7.73000002,76,255,0,3.000000,13.000000,373173.468750,51.000000,1.000000
440453.15999939,4464115.72000305,7.76000023,77,255,0,3.000000,31.000000,373173.468750,63.000000,1.000000
440455.70998718,4464116.00999634,7.63999987,72,255,0,3.000000,13.000000,373173.468750,52.000000,1.000000
440455.68999817,4464116.16000549,7.50000000,66,255,0,3.000000,29.000000,373173.468750,52.000000,1.000000
440455.65999939,4464116.33000366,7.23999977,55,255,0,3.000000,13.000000,373173.468750,52.000000,1.000000
440453.19999268,4464117.05999939,7.51000023,67,255,0,3.000000,15.000000,373173.468750,63.000000,1.000000
440453.20998718,4464117.28000061,7.51000023,67,255,0,3.000000,31.000000,373173.468750,63.000000,1.000000
440453.13999512,4464117.81999390,6.90999985,41,255,0,3.000000,15.000000,373173.468750,63.000000,1.000000
440454.71999695,4464110.78999512,7.76999998,78,255,0,3.000000,29.000000,373173.562500,50.000000,1.000000
440452.07999756,4464111.47999756,7.26000023,56,255,0,3.000000,15.000000,373173.562500,63.000000,1.000000
440454.69999268,4464111.97999756,7.32999992,59,255,0,3.000000,13.000000,373173.562500,50.000000,1.000000
440454.72999146,4464112.55999939,7.53000021,68,255,0,3.000000,13.000000,373173.562500,51.000000,1.000000
440454.72999146,4464112.75999634,7.46000004,65,255,0,3.000000,29.000000,373173.562500,51.000000,1.000000
440452.24999573,4464114.80999939,7.78999996,79,255,0,3.000000,15.000000,373173.562500,63.000000,1.000000
440457.30999329,4464115.25999634,7.09000015,49,255,0,3.000000,27.000000,373173.562500,63.000000,1.000000
440451.08999207,4464110.77000610,6.88999987,40,255,0,3.000000,15.000000,373173.656250,63.000000,1.000000
440453.74000122,4464110.97000305,6.98999977,44,255,0,3.000000,29.000000,373173.656250,50.000000,1.000000
440453.81998779,4464111.58000366,7.61999989,71,255,0,3.000000,13.000000,373173.656250,50.000000,1.000000
440451.11999084,4464111.99000732,6.80999994,36,255,0,3.000000,31.000000,373173.656250,63.000000,1.000000
440453.82999756,4464112.75999634,7.42000008,62,255,0,3.000000,29.000000,373173.656250,51.000000,1.000000
440453.85999634,4464113.08999817,7.53000021,68,255,0,3.000000,13.000000,373173.656250,51.000000,1.000000
440451.21999695,4464112.97000305,7.09000015,49,255,0,3.000000,15.000000,373173.656250,63.000000,1.000000
440456.43999817,4464113.25999634,7.40000010,62,255,0,3.000000,27.000000,373173.656250,63.000000,1.000000
440451.18999817,4464113.42000000,7.25000000,56,255,0,3.000000,15.000000,373173.656250,63.000000,1.000000
440456.40999939,4464113.74000732,7.17999983,53,255,0,3.000000,27.000000,373173.656250,63.000000,1.000000
440453.93999817,4464114.86000244,7.69000006,74,255,0,3.000000,13.000000,373173.656250,52.000000,1.000000
440456.52000000,4464115.19999878,7.73999977,77,255,0,3.000000,27.000000,373173.656250,63.000000,1.000000
440456.49999573,4464115.41000549,7.53000021,68,255,0,3.000000,11.000000,373173.656250,63.000000,1.000000
440453.95998718,4464115.59999268,7.57999992,70,255,0,3.000000,29.000000,373173.656250,52.000000,1.000000
440456.41999390,4464115.59999268,6.84000015,38,255,0,3.000000,11.000000,373173.656250,63.000000,1.000000
440453.97999146,4464116.17000000,7.34999990,59,255,0,3.000000,29.000000,373173.656250,52.000000,1.000000
440451.40999939,4464116.55999939,7.46000004,65,255,0,3.000000,31.000000,373173.656250,63.000000,1.000000
440451.36999084,4464116.92999451,7.15000010,51,255,0,3.000000,31.000000,373173.656250,63.000000,1.000000
440453.95998718,4464117.56999390,7.32999992,59,255,0,3.000000,29.000000,373173.656250,52.000000,1.000000
440455.91999390,4464111.31999390,7.32000017,59,255,0,3.000000,11.000000,373173.781250,63.000000,1.000000
440453.39998962,4464111.78000061,7.61999989,71,255,0,3.000000,13.000000,373173.781250,50.000000,1.000000
440455.92998840,4464111.92000000,7.28000021,56,255,0,3.000000,11.000000,373173.781250,63.000000,1.000000
440453.40999939,4464112.31999390,7.65999985,73,255,0,3.000000,13.000000,373173.781250,51.000000,1.000000
440450.77000000,4464112.80000488,7.09000015,49,255,0,3.000000,31.000000,373173.781250,63.000000,1.000000
440456.00999023,4464113.30999939,7.63000011,72,255,0,3.000000,11.000000,373173.781250,63.000000,1.000000
440453.39998962,4464113.17999451,7.46000004,65,255,0,3.000000,13.000000,373173.781250,51.000000,1.000000
440456.03998901,4464114.09999268,7.71000004,75,255,0,3.000000,27.000000,373173.781250,63.000000,1.000000
440453.49999573,4464114.94000427,7.63999987,72,255,0,3.000000,13.000000,373173.781250,52.000000,1.000000
440453.52000000,4464115.17000000,7.53000021,68,255,0,3.000000,29.000000,373173.781250,52.000000,1.000000
440456.08999207,4464115.61999695,7.71000004,75,255,0,3.000000,11.000000,373173.781250,63.000000,1.000000
440456.02999451,4464115.59999268,7.26000023,56,255,0,3.000000,27.000000,373173.781250,63.000000,1.000000
440456.02000000,4464116.06999390,7.50000000,66,255,0,3.000000,27.000000,373173.781250,63.000000,1.000000
440456.02999451,4464116.39999573,7.48000002,65,255,0,3.000000,11.000000,373173.781250,63.000000,1.000000
440453.60999634,4464116.78000061,7.71999979,76,255,0,3.000000,13.000000,373173.781250,53.000000,1.000000
440450.91999390,4464116.33999817,7.23000002,55,255,0,3.000000,15.000000,373173.781250,63.000000,1.000000
440453.55999329,4464116.80999939,7.36999989,61,255,0,3.000000,29.000000,373173.781250,52.000000,1.000000
440453.60000183,4464117.41000549,7.44000006,64,255,0,3.000000,29.000000,373173.781250,53.000000,1.000000
440453.49000122,4464117.59999268,6.73999977,33,255,0,3.000000,29.000000,373173.781250,52.000000,1.000000
440455.38000061,4464110.89999573,6.92000008,41,255,0,3.000000,11.000000,373173.875000,63.000000,1.000000
440452.85000183,4464111.27000610,7.50000000,66,255,0,3.000000,13.000000,373173.875000,50.000000,1.000000
440455.45998718,4464111.84999268,7.71000004,75,255,0,3.000000,11.000000,373173.875000,63.000000,1.000000
440452.85000183,4464111.94999878,7.26000023,56,255,0,3.000000,29.000000,373173.875000,50.000000,1.000000
440455.39998962,4464112.03000061,7.07999992,48,255,0,3.000000,11.000000,373173.875000,63.000000,1.000000
440452.94999268,4464114.69000427,7.53999996,68,255,0,3.000000,29.000000,373173.875000,51.000000,1.000000
440455.55999329,4464115.94999878,7.53999996,68,255,0,3.000000,27.000000,373173.875000,63.000000,1.000000
440450.33999207,4464115.55000488,7.23999977,55,255,0,3.000000,31.000000,373173.875000,63.000000,1.000000
440455.55999329,4464116.25999634,7.59000015,70,255,0,3.000000,11.000000,373173.875000,63.000000,1.000000
440450.32999756,4464115.80999939,7.15000010,51,255,0,3.000000,15.000000,373173.875000,63.000000,1.000000
440455.52999451,4464116.33000366,7.30000019,58,255,0,3.000000,27.000000,373173.875000,63.000000,1.000000
440450.30999329,4464115.94000427,6.96999979,44,255,0,3.000000,31.000000,373173.875000,63.000000,1.000000
440453.06998779,4464117.02000610,7.48999977,65,255,0,3.000000,29.000000,373173.875000,53.000000,1.000000
440453.07999756,4464117.33999817,7.48000002,65,255,0,3.000000,13.000000,373173.875000,53.000000,1.000000
440453.07999756,4464117.53000061,7.42000008,62,255,0,3.000000,29.000000,373173.875000,53.000000,1.000000
440453.00999023,4464117.81999390,6.94000006,42,255,0,3.000000,29.000000,373173.875000,52.000000,1.000000
440452.52999451,4464111.06999390,7.67999983,74,255,0,3.000000,13.000000,373173.968750,50.000000,1.000000
440452.52000000,4464111.25000183,7.59000015,70,255,0,3.000000,29.000000,373173.968750,50.000000,1.000000
440455.08999207,4464111.33000366,7.55999994,69,255,0,3.000000,11.000000,373173.968750,63.000000,1.000000
440452.54999878,4464111.63000671,7.63000011,72,255,0,3.000000,13.000000,373173.968750,51.000000,1.000000
440455.10000183,4464111.91000549,7.53999996,68,255,0,3.000000,11.000000,373173.968750,63.000000,1.000000
440452.58999207,4464114.34999268,7.73999977,77,255,0,3.000000,29.000000,373173.968750,51.000000,1.000000
440457.65999939,4464115.19000427,7.11999989,50,255,0,3.000000,25.000000,373173.968750,63.000000,1.000000
440455.21999695,4464116.16000549,7.76999998,78,255,0,3.000000,27.000000,373173.968750,63.000000,1.000000
440449.93999817,4464115.86999695,6.98000002,44,255,0,3.000000,15.000000,373173.968750,63.000000,1.000000
440452.67998840,4464116.58999817,7.67999983,74,255,0,3.000000,29.000000,373173.968750,52.000000,1.000000
440455.13999512,4464116.58999817,6.90000010,41,255,0,3.000000,11.000000,373173.968750,63.000000,1.000000
440452.64998962,4464116.75999634,7.38000011,61,255,0,3.000000,13.000000,373173.968750,52.000000,1.000000
440452.64998962,4464116.94000427,7.30000019,58,255,0,3.000000,29.000000,373173.968750,52.000000,1.000000
440452.74000122,4464117.49000732,7.73999977,77,255,0,3.000000,13.000000,373173.968750,53.000000,1.000000
440452.71999695,4464117.94999878,7.55000019,68,255,0,3.000000,13.000000,373173.968750,53.000000,1.000000
440454.83999207,4464110.55999939,7.55999994,69,255,0,3.000000,27.000000,373174.062500,63.000000,1.000000
440454.83999207,4464111.05999939,7.59000015,70,255,0,3.000000,27.000000,373174.062500,63.000000,1.000000
440452.31998779,4464111.77000610,7.69999981,75,255,0,3.000000,13.000000,373174.062500,51.000000,1.000000
440454.83999207,4464111.91000549,7.40999985,62,255,0,3.000000,11.000000,373174.062500,63.000000,1.000000
440452.28998901,4464112.17000000,7.69999981,75,255,0,3.000000,13.000000,373174.062500,51.000000,1.000000
440454.85000183,4464112.42000000,7.28000021,56,255,0,3.000000,11.000000,373174.062500,63.000000,1.000000
440452.35000183,4464114.22000305,7.76999998,78,255,0,3.000000,13.000000,373174.062500,51.000000,1.000000
440457.40999939,4464114.08999817,7.15999985,52,255,0,3.000000,25.000000,373174.062500,63.000000,1.000000
440452.35999634,4464114.44999878,7.76999998,78,255,0,3.000000,29.000000,373174.062500,51.000000,1.000000
440457.41999390,4464115.22000305,7.07000017,47,255,0,3.000000,25.000000,373174.062500,63.000000,1.000000
440452.43999817,4464116.14999573,7.80000019,79,255,0,3.000000,29.000000,373174.062500,52.000000,1.000000
440452.45998718,4464117.00000183,7.63999987,72,255,0,3.000000,13.000000,373174.062500,52.000000,1.000000
440452.47999146,4464117.25000183,7.69999981,75,255,0,3.000000,29.000000,373174.062500,53.000000,1.000000
440452.40999939,4464117.80999939,7.17000008,52,255,0,3.000000,13.000000,373174.062500,52.000000,1.000000
440452.38000061,4464117.89000122,6.88999987,40,255,0,3.000000,29.000000,373174.062500,52.000000,1.000000
440451.90999939,4464111.47999756,7.28000021,56,255,0,3.000000,13.000000,373174.156250,50.000000,1.000000
440451.92998840,4464112.02000610,7.46000004,65,255,0,3.000000,13.000000,373174.156250,50.000000,1.000000
440451.94999268,4464112.58000366,7.42000008,62,255,0,3.000000,13.000000,373174.156250,51.000000,1.000000
440454.52000000,4464112.69999878,7.44000006,64,255,0,3.000000,27.000000,373174.156250,63.000000,1.000000
440451.99000122,4464112.94999878,7.65000010,73,255,0,3.000000,29.000000,373174.156250,51.000000,1.000000
440457.04999878,4464112.67000000,6.96000004,43,255,0,3.000000,9.000000,373174.156250,63.000000,1.000000
440454.45998718,4464113.75999634,6.73999977,33,255,0,3.000000,11.000000,373174.156250,63.000000,1.000000
440457.06998779,4464115.53000061,7.00000000,44,255,0,3.000000,9.000000,373174.156250,63.000000,1.000000
440454.63000061,4464116.55999939,7.50000000,66,255,0,3.000000,11.000000,373174.156250,63.000000,1.000000
440452.08999207,4464116.47000305,7.73000002,76,255,0,3.000000,13.000000,373174.156250,52.000000,1.000000
440452.13000061,4464117.03999512,7.75000000,77,255,0,3.000000,13.000000,373174.156250,53.000000,1.000000
440452.10999634,4464117.50999634,7.59000015,70,255,0,3.000000,13.000000,373174.156250,53.000000,1.000000
440452.02999451,4464117.41000549,6.96999979,44,255,0,3.000000,29.000000,373174.156250,52.000000,1.000000
440452.04999878,4464117.77000610,7.05000019,47,255,0,3.000000,13.000000,373174.156250,52.000000,1.000000
440450.94999268,4464111.28999512,7.30999994,58,255,0,3.000000,13.000000,373174.281250,50.000000,1.000000
440453.58999207,4464111.61000244,7.46000004,65,255,0,3.000000,27.000000,373174.281250,63.000000,1.000000
440450.91999390,4464111.28999512,6.92999983,41,255,0,3.000000,29.000000,373174.281250,50.000000,1.000000
440450.90999939,4464111.53999512,6.76000023,35,255,0,3.000000,13.000000,373174.281250,50.000000,1.000000
440456.15999939,4464111.92000000,7.44999981,64,255,0,3.000000,25.000000,373174.281250,63.000000,1.000000
440453.60000183,4464112.14999573,7.55999994,69,255,0,3.000000,27.000000,373174.281250,63.000000,1.000000
440453.60000183,4464112.42000000,7.40999985,62,255,0,3.000000,11.000000,373174.281250,63.000000,1.000000
440450.94999268,4464112.20999329,7.07000017,47,255,0,3.000000,13.000000,373174.281250,50.000000,1.000000
440453.58999207,4464112.86999695,7.21000004,53,255,0,3.000000,11.000000,373174.281250,63.000000,1.000000
440451.03998901,4464112.97999756,7.36999989,61,255,0,3.000000,13.000000,373174.281250,51.000000,1.000000
440451.03998901,4464113.17000000,7.73999977,77,255,0,3.000000,29.000000,373174.281250,51.000000,1.000000
440456.16999390,4464113.42000000,7.42000008,62,255,0,3.000000,9.000000,373174.281250,63.000000,1.000000
440450.99999573,4464113.34999268,7.44999981,64,255,0,3.000000,13.000000,373174.281250,51.000000,1.000000
440456.17998840,4464114.11000244,7.67999983,74,255,0,3.000000,9.000000,373174.281250,63.000000,1.000000
440450.95998718,4464113.89999573,6.98000002,44,255,0,3.000000,29.000000,373174.281250,51.000000,1.000000
440456.20998718,4464115.03999512,7.78999996,79,255,0,3.000000,25.000000,373174.281250,63.000000,1.000000
440451.07999756,4464114.78000061,7.63999987,72,255,0,3.000000,29.000000,373174.281250,51.000000,1.000000
440456.19999268,4464115.33000366,7.69999981,75,255,0,3.000000,9.000000,373174.281250,63.000000,1.000000
440453.66999390,4464115.47999756,7.55999994,69,255,0,3.000000,27.000000,373174.281250,63.000000,1.000000
440451.07999756,4464115.30000488,7.59999990,71,255,0,3.000000,29.000000,373174.281250,52.000000,1.000000
440456.16999390,4464115.64000122,7.25000000,56,255,0,3.000000,9.000000,373174.281250,63.000000,1.000000
440453.68999817,4464116.11999695,7.67000008,74,255,0,3.000000,27.000000,373174.281250,63.000000,1.000000
440451.10000183,4464115.86000244,7.61000013,71,255,0,3.000000,29.000000,373174.281250,52.000000,1.000000
440451.10000183,4464116.36000244,7.36999989,61,255,0,3.000000,29.000000,373174.281250,52.000000,1.000000
440453.68999817,4464116.89999573,7.44999981,64,255,0,3.000000,11.000000,373174.281250,63.000000,1.000000
440451.06998779,4464116.55999939,7.09999990,49,255,0,3.000000,13.000000,373174.281250,52.000000,1.000000
440453.69999268,4464117.14000122,7.46000004,65,255,0,3.000000,27.000000,373174.281250,63.000000,1.000000
440453.69999268,4464117.42000000,7.36000013,60,255,0,3.000000,11.000000,373174.281250,63.000000,1.000000
440451.10999634,4464117.14999573,7.19000006,53,255,0,3.000000,13.000000,373174.281250,52.000000,1.000000
440451.10999634,4464117.30999939,7.07000017,47,255,0,3.000000,29.000000,373174.281250,52.000000,1.000000
440452.79999878,4464111.63000671,7.69999981,75,255,0,3.000000,27.000000,373174.375000,63.000000,1.000000
440452.78998901,4464111.91000549,7.53999996,68,255,0,3.000000,11.000000,373174.375000,63.000000,1.000000
440455.35999634,4464112.13000671,7.76000023,77,255,0,3.000000,25.000000,373174.375000,63.000000,1.000000
440452.75999023,4464112.03000061,7.46999979,65,255,0,3.000000,27.000000,373174.375000,63.000000,1.000000
440455.32999756,4464112.09999268,7.15000010,51,255,0,3.000000,9.000000,373174.375000,63.000000,1.000000
440452.80999329,4464114.28999512,7.78999996,79,255,0,3.000000,27.000000,373174.375000,63.000000,1.000000
440452.81998779,4464114.75999634,7.63000011,72,255,0,3.000000,27.000000,373174.375000,63.000000,1.000000
440450.14998962,4464114.80999939,6.96000004,43,255,0,3.000000,29.000000,373174.375000,51.000000,1.000000
440455.38999512,4464115.70999329,7.51000023,67,255,0,3.000000,9.000000,373174.375000,63.000000,1.000000
440455.40999939,4464116.02000610,7.67000008,74,255,0,3.000000,25.000000,373174.375000,63.000000,1.000000
440455.38999512,4464116.30999939,7.61000013,71,255,0,3.000000,9.000000,373174.375000,63.000000,1.000000
440452.88000061,4464116.36000244,7.69000006,74,255,0,3.000000,11.000000,373174.375000,63.000000,1.000000
440450.24000122,4464115.89000122,7.19999981,53,255,0,3.000000,13.000000,373174.375000,52.000000,1.000000
440455.35999634,4464116.30999939,7.17999983,53,255,0,3.000000,25.000000,373174.375000,63.000000,1.000000
440452.88999512,4464116.89999573,7.67000008,74,255,0,3.000000,11.000000,373174.375000,63.000000,1.000000
440452.90999939,4464117.41000549,7.57999992,70,255,0,3.000000,11.000000,373174.375000,63.000000,1.000000
440452.90999939,4464117.55999939,7.46000004,65,255,0,3.000000,27.000000,373174.375000,63.000000,1.000000
440452.88999512,4464117.80999939,7.28000021,56,255,0,3.000000,11.000000,373174.375000,63.000000,1.000000
440452.85000183,4464117.83999817,6.92000008,41,255,0,3.000000,27.000000,373174.375000,63.000000,1.000000
440454.85000183,4464110.72000305,7.40999985,62,255,0,3.000000,25.000000,373174.468750,63.000000,1.000000
440454.86999084,4464111.09999268,7.65000010,73,255,0,3.000000,9.000000,373174.468750,63.000000,1.000000
440452.35000183,4464111.64999573,7.71999979,76,255,0,3.000000,27.000000,373174.468750,63.000000,1.000000
440454.85999634,4464111.94999878,7.07999992,48,255,0,3.000000,9.000000,373174.468750,63.000000,1.000000
440457.40999939,4464114.14000122,7.15999985,52,255,0,3.000000,7.000000,373174.468750,63.000000,1.000000
440452.35000183,4464114.67000000,7.69000006,74,255,0,3.000000,27.000000,373174.468750,63.000000,1.000000
440452.35999634,4464115.05000488,7.73000002,76,255,0,3.000000,11.000000,373174.468750,63.000000,1.000000
440457.40999939,4464115.28000061,7.05000019,47,255,0,3.000000,7.000000,373174.468750,63.000000,1.000000
440454.91999390,4464116.09999268,7.40000010,62,255,0,3.000000,9.000000,373174.468750,63.000000,1.000000
440452.41999390,4464117.00000183,7.76000023,77,255,0,3.000000,27.000000,373174.468750,63.000000,1.000000
440452.43999817,4464117.28999512,7.67999983,74,255,0,3.000000,11.000000,373174.468750,63.000000,1.000000
440454.22999146,4464111.55000488,7.57000017,69,255,0,3.000000,9.000000,373174.562500,63.000000,1.000000
440454.22999146,4464111.80999939,7.61000013,71,255,0,3.000000,25.000000,373174.562500,63.000000,1.000000
440456.77999451,4464111.64000122,7.01000023,45,255,0,3.000000,7.000000,373174.562500,63.000000,1.000000
440454.22999146,4464112.11000244,7.71000004,75,255,0,3.000000,9.000000,373174.562500,63.000000,1.000000
440456.79999878,4464112.11000244,7.46999979,65,255,0,3.000000,23.000000,373174.562500,63.000000,1.000000
440451.67998840,4464112.44999878,7.69000006,74,255,0,3.000000,27.000000,373174.562500,63.000000,1.000000
440456.77999451,4464112.36999695,7.23999977,55,255,0,3.000000,7.000000,373174.562500,63.000000,1.000000
440456.78998901,4464113.05000488,7.32999992,59,255,0,3.000000,7.000000,373174.562500,63.000000,1.000000
440451.65999939,4464113.14000122,7.69000006,74,255,0,3.000000,11.000000,373174.562500,63.000000,1.000000
440456.77999451,4464113.42999451,7.01999998,46,255,0,3.000000,7.000000,373174.562500,63.000000,1.000000
440451.60999634,4464113.53999512,6.98999977,44,255,0,3.000000,27.000000,373174.562500,63.000000,1.000000
440451.60000183,4464113.78999512,6.82000017,37,255,0,3.000000,11.000000,373174.562500,63.000000,1.000000
440456.75999023,4464114.58000366,7.07000017,47,255,0,3.000000,7.000000,373174.562500,63.000000,1.000000
440451.71999695,4464114.83999817,7.76000023,77,255,0,3.000000,11.000000,373174.562500,63.000000,1.000000
440456.77000000,4464115.30999939,7.26000023,56,255,0,3.000000,7.000000,373174.562500,63.000000,1.000000
440451.70998718,4464115.30000488,7.63000011,72,255,0,3.000000,11.000000,373174.562500,63.000000,1.000000
440456.77000000,4464115.55999939,7.30000019,58,255,0,3.000000,23.000000,373174.562500,63.000000,1.000000
440451.72999146,4464115.58000366,7.69999981,75,255,0,3.000000,27.000000,373174.562500,63.000000,1.000000
440454.25999023,4464115.92999451,7.44000006,64,255,0,3.000000,9.000000,373174.562500,63.000000,1.000000
440454.27000000,4464116.39000122,7.63999987,72,255,0,3.000000,25.000000,373174.562500,63.000000,1.000000
440451.66999390,4464116.41000549,7.07000017,47,255,0,3.000000,27.000000,373174.562500,63.000000,1.000000
440451.74000122,4464116.99000732,7.48999977,65,255,0,3.000000,11.000000,373174.562500,63.000000,1.000000
440451.74000122,4464117.19999878,7.48000002,65,255,0,3.000000,27.000000,373174.562500,63.000000,1.000000
440451.74000122,4464117.45999329,7.36999989,61,255,0,3.000000,11.000000,373174.562500,63.000000,1.000000
440451.74999573,4464117.69999878,7.40000010,62,255,0,3.000000,27.000000,373174.562500,63.000000,1.000000
440451.02999451,4464110.52000610,6.88000011,39,255,0,3.000000,11.000000,373174.656250,63.000000,1.000000
440451.02999451,4464110.75000183,6.84999990,38,255,0,3.000000,27.000000,373174.656250,63.000000,1.000000
440453.68999817,4464111.44000427,7.55999994,69,255,0,3.000000,9.000000,373174.656250,63.000000,1.000000
440451.04999878,4464111.33999817,7.03999996,47,255,0,3.000000,27.000000,373174.656250,63.000000,1.000000
440451.02000000,4464111.49000732,6.71000004,32,255,0,3.000000,11.000000,373174.656250,63.000000,1.000000
440456.24000122,4464112.05999939,7.11000013,50,255,0,3.000000,7.000000,373174.656250,63.000000,1.000000
440456.24000122,4464112.81999390,7.36000013,60,255,0,3.000000,7.000000,373174.656250,63.000000,1.000000
440453.69999268,4464112.97999756,7.36999989,61,255,0,3.000000,9.000000,373174.656250,63.000000,1.000000
440451.11999084,4464112.92999451,7.30000019,58,255,0,3.000000,11.000000,373174.656250,63.000000,1.000000
440451.11999084,4464113.14999573,7.69999981,75,255,0,3.000000,27.000000,373174.656250,63.000000,1.000000
440456.24000122,4464113.42000000,7.40999985,62,255,0,3.000000,7.000000,373174.656250,63.000000,1.000000
440456.24000122,4464113.66000549,7.40999985,62,255,0,3.000000,23.000000,373174.656250,63.000000,1.000000
440451.08999207,4464113.47000305,7.28999996,57,255,0,3.000000,27.000000,373174.656250,63.000000,1.000000
440451.05999329,4464113.64999573,6.98000002,44,255,0,3.000000,11.000000,373174.656250,63.000000,1.000000
440451.05999329,4464113.84999268,6.90999985,41,255,0,3.000000,27.000000,373174.656250,63.000000,1.000000
440451.14998962,4464114.78999512,7.63000011,72,255,0,3.000000,27.000000,373174.656250,63.000000,1.000000
440456.21999695,4464115.64999573,7.28000021,56,255,0,3.000000,7.000000,373174.656250,63.000000,1.000000
440453.71999695,4464116.08000366,7.59000015,70,255,0,3.000000,25.000000,373174.656250,63.000000,1.000000
440451.16999390,4464115.84999268,7.61999989,71,255,0,3.000000,27.000000,373174.656250,63.000000,1.000000
440451.15999939,4464116.19000427,7.46000004,65,255,0,3.000000,11.000000,373174.656250,63.000000,1.000000
440451.13000061,4464116.55000488,7.09999990,49,255,0,3.000000,11.000000,373174.656250,63.000000,1.000000
440453.70998718,4464117.11000244,7.36000013,60,255,0,3.000000,25.000000,373174.656250,63.000000,1.000000
440453.70998718,4464117.39999573,7.28999996,57,255,0,3.000000,9.000000,373174.656250,63.000000,1.000000
440451.13999512,4464117.25999634,7.00000000,44,255,0,3.000000,27.000000,373174.656250,63.000000,1.000000
440451.13000061,4464117.53999512,6.90000010,41,255,0,3.000000,11.000000,373174.656250,63.000000,1.000000
440453.45998718,4464111.44000427,7.57000017,69,255,0,3.000000,25.000000,373174.781250,63.000000,1.000000
440453.46999695,4464111.97999756,7.46999979,65,255,0,3.000000,25.000000,373174.781250,63.000000,1.000000
440456.02999451,4464112.72999756,7.61000013,71,255,0,3.000000,7.000000,373174.781250,63.000000,1.000000
440456.02999451,4464113.36000244,7.67000008,74,255,0,3.000000,7.000000,373174.781250,63.000000,1.000000
440450.79999878,4464113.30999939,6.80999994,36,255,0,3.000000,11.000000,373174.781250,63.000000,1.000000
440456.00999023,4464114.14999573,7.71999979,76,255,0,3.000000,23.000000,373174.781250,63.000000,1.000000
440450.82999756,4464113.94000427,6.88999987,40,255,0,3.000000,11.000000,373174.781250,63.000000,1.000000
440453.47999146,4464114.95999329,7.57000017,69,255,0,3.000000,9.000000,373174.781250,63.000000,1.000000
440450.88000061,4464114.67000000,7.26999998,56,255,0,3.000000,11.000000,373174.781250,63.000000,1.000000
440456.02000000,4464115.67000000,7.69000006,74,255,0,3.000000,7.000000,373174.781250,63.000000,1.000000
440450.95998718,4464115.70999329,7.73999977,77,255,0,3.000000,27.000000,373174.781250,63.000000,1.000000
440450.93999817,4464115.94000427,7.57999992,70,255,0,3.000000,11.000000,373174.781250,63.000000,1.000000
440455.96999695,4464116.14000122,7.53000021,68,255,0,3.000000,23.000000,373174.781250,63.000000,1.000000
440450.94999268,4464116.19000427,7.48999977,65,255,0,3.000000,27.000000,373174.781250,63.000000,1.000000
440450.92998840,4464116.42000000,7.28999996,57,255,0,3.000000,11.000000,373174.781250,63.000000,1.000000
440453.49000122,4464116.86000244,7.36999989,61,255,0,3.000000,25.000000,373174.781250,63.000000,1.000000
440450.90999939,4464116.53999512,7.09000015,49,255,0,3.000000,27.000000,373174.781250,63.000000,1.000000
440453.49000122,4464117.19999878,7.32999992,59,255,0,3.000000,9.000000,373174.781250,63.000000,1.000000
440450.96999695,4464117.08000366,7.48000002,65,255,0,3.000000,11.000000,373174.781250,63.000000,1.000000
440453.44999268,4464117.47000305,6.86000013,38,255,0,3.000000,9.000000,373174.781250,63.000000,1.000000
440453.19999268,4464111.49000732,7.57999992,70,255,0,3.000000,9.000000,373174.875000,63.000000,1.000000
440455.77000000,4464111.38000671,7.26000023,56,255,0,3.000000,23.000000,373174.875000,63.000000,1.000000
440450.60000183,4464111.78999512,6.78999996,35,255,0,3.000000,11.000000,373174.875000,63.000000,1.000000
440453.19999268,4464112.28000061,7.69000006,74,255,0,3.000000,25.000000,373174.875000,63.000000,1.000000
440455.77999451,4464112.55000488,7.61999989,71,255,0,3.000000,7.000000,373174.875000,63.000000,1.000000
440455.77999451,4464112.78999512,7.61000013,71,255,0,3.000000,23.000000,373174.875000,63.000000,1.000000
440450.61999084,4464112.88000671,7.03999996,47,255,0,3.000000,11.000000,373174.875000,63.000000,1.000000
440450.53998901,4464113.03999512,6.90999985,41,255,0,3.000000,11.000000,373174.875000,63.000000,1.000000
440455.75999023,4464115.05999939,7.69999981,75,255,0,3.000000,23.000000,373174.875000,63.000000,1.000000
440450.64998962,4464115.05000488,7.48000002,65,255,0,3.000000,11.000000,373174.875000,63.000000,1.000000
440450.61999084,4464115.13000671,7.21000004,53,255,0,3.000000,27.000000,373174.875000,63.000000,1.000000
440455.72999146,4464116.05000488,7.46000004,65,255,0,3.000000,23.000000,373174.875000,63.000000,1.000000
440450.63999512,4464116.02000610,7.01999998,46,255,0,3.000000,11.000000,373174.875000,63.000000,1.000000
440455.70998718,4464116.39000122,7.09000015,49,255,0,3.000000,23.000000,373174.875000,63.000000,1.000000
440450.67998840,4464116.38000671,7.25000000,56,255,0,3.000000,27.000000,373174.875000,63.000000,1.000000
440453.24999573,4464117.05000488,7.57999992,70,255,0,3.000000,9.000000,373174.875000,63.000000,1.000000
440453.22999146,4464117.45999329,7.34000015,59,255,0,3.000000,9.000000,373174.875000,63.000000,1.000000
440452.64998962,4464111.49000732,7.63999987,72,255,0,3.000000,25.000000,373174.968750,63.000000,1.000000
440455.18999817,4464112.05999939,7.42999983,63,255,0,3.000000,7.000000,373174.968750,63.000000,1.000000
440455.17998840,4464112.20999329,7.28000021,56,255,0,3.000000,23.000000,373174.968750,63.000000,1.000000
440452.63000061,4464114.36999695,7.78000021,78,255,0,3.000000,9.000000,373174.968750,63.000000,1.000000
440452.63999512,4464114.59999268,7.78000021,78,255,0,3.000000,25.000000,373174.968750,63.000000,1.000000
440450.02999451,4464114.77000610,7.23999977,55,255,0,3.000000,27.000000,373174.968750,63.000000,1.000000
440457.67998840,4464115.20999329,7.13999987,50,255,0,3.000000,5.000000,373174.968750,63.000000,1.000000
440450.07999756,4464115.84999268,7.50000000,66,255,0,3.000000,11.000000,373174.968750,63.000000,1.000000
440455.11999084,4464116.36999695,7.03999996,47,255,0,3.000000,7.000000,373174.968750,63.000000,1.000000
440452.63999512,4464116.58999817,7.61999989,71,255,0,3.000000,9.000000,373174.968750,63.000000,1.000000
440452.61999084,4464116.69000427,7.40999985,62,255,0,3.000000,25.000000,373174.968750,63.000000,1.000000
440452.65999939,4464117.42999451,7.69999981,75,255,0,3.000000,25.000000,373174.968750,63.000000,1.000000
440452.64998962,4464117.67000000,7.57999992,70,255,0,3.000000,9.000000,373174.968750,63.000000,1.000000
440452.63999512,4464117.89999573,7.57999992,70,255,0,3.000000,25.000000,373174.968750,63.000000,1.000000
440451.99000122,4464111.45999329,7.38000011,61,255,0,3.000000,25.000000,373175.062500,63.000000,1.000000
440454.55999329,4464112.25000183,7.55999994,69,255,0,3.000000,7.000000,373175.062500,63.000000,1.000000
440452.00999023,4464112.95999329,7.59000015,70,255,0,3.000000,9.000000,373175.062500,63.000000,1.000000
440457.10999634,4464112.64000122,6.98999977,44,255,0,3.000000,21.000000,373175.062500,63.000000,1.000000
440457.05999329,4464113.92999451,7.03999996,47,255,0,3.000000,21.000000,373175.062500,63.000000,1.000000
440457.03998901,4464114.39000122,7.09999990,49,255,0,3.000000,21.000000,373175.062500,63.000000,1.000000
440457.02999451,4464115.20999329,7.44000006,64,255,0,3.000000,21.000000,373175.062500,63.000000,1.000000
440457.02000000,4464115.36999695,7.11000013,50,255,0,3.000000,5.000000,373175.062500,63.000000,1.000000
440451.97999146,4464115.70999329,7.44999981,64,255,0,3.000000,25.000000,373175.062500,63.000000,1.000000
440454.49999573,4464116.24000732,7.38999987,62,255,0,3.000000,7.000000,373175.062500,63.000000,1.000000
440451.99000122,4464116.17000000,7.67000008,74,255,0,3.000000,9.000000,373175.062500,63.000000,1.000000
440454.46999695,4464116.49000732,6.82999992,38,255,0,3.000000,7.000000,373175.062500,63.000000,1.000000
440451.99000122,4464117.28000061,7.61000013,71,255,0,3.000000,9.000000,373175.062500,63.000000,1.000000
440451.93999817,4464117.52000610,7.03000021,46,255,0,3.000000,9.000000,373175.062500,63.000000,1.000000
440451.94999268,4464117.81999390,7.17999983,53,255,0,3.000000,25.000000,373175.062500,63.000000,1.000000
