//X,Y,Z,R,G,B,Point Source ID,User Data,Time,Intensity,Classification
440429.55999329,4464161.64000122,7.26000023,56,255,0,3.000000,13.000000,373177.968750,53.000000,1.000000
440430.83999207,4464162.02000610,7.26999998,56,255,0,3.000000,11.000000,373178.187500,63.000000,1.000000
440430.53998901,4464161.81001465,6.40000010,19,255,0,3.000000,27.000000,373178.281250,63.000000,1.000000
440430.21999695,4464162.08000366,7.63999987,72,255,0,3.000000,11.000000,373178.375000,63.000000,1.000000
440430.02999451,4464160.39999573,6.94000006,42,255,0,3.000000,27.000000,373178.468750,63.000000,1.000000
440429.88999512,4464161.24000732,6.28000021,14,255,0,3.000000,11.000000,373178.468750,63.000000,1.000000
440431.94999268,4464161.17999451,6.67000008,30,255,0,3.000000,25.000000,373178.593750,63.000000,1.000000
440430.67998840,4464161.11000244,6.51000023,23,255,0,3.000000,9.000000,373178.781250,63.000000,1.000000
440432.36999084,4464160.55999939,6.11999989,7,255,0,3.000000,23.000000,373178.875000,63.000000,1.000000
440429.77999451,4464161.62999146,6.80000019,36,255,0,3.000000,9.000000,373178.875000,63.000000,1.000000
440429.56998779,4464160.11999695,6.86999989,39,255,0,3.000000,9.000000,373178.968750,63.000000,1.000000
440429.31998779,4464160.36000244,6.96000004,43,255,0,3.000000,25.000000,373179.093750,63.000000,1.000000
440429.18999817,4464161.83000366,7.28000021,56,255,0,3.000000,25.000000,373179.093750,63.000000,1.000000
440430.49000122,4464161.08000366,6.46000004,21,255,0,3.000000,23.000000,373179.281250,63.000000,1.000000
440432.28998901,4464160.49000732,6.40000010,19,255,0,3.000000,21.000000,373179.468750,63.000000,1.000000
440429.75999023,4464161.11000244,6.94000006,42,255,0,3.000000,7.000000,373179.468750,63.000000,1.000000
440429.02999451,4464160.77000610,6.57000017,26,255,0,3.000000,7.000000,373179.593750,63.000000,1.000000
440430.86999084,4464161.31999390,6.63000011,29,255,0,3.000000,21.000000,373179.687500,63.000000,1.000000
440430.81998779,4464158.05999939,5.84000015,0,250,4,3.000000,5.000000,373179.781250,63.000000,1.000000
440430.25999023,4464160.00000183,6.71999979,32,255,0,3.000000,21.000000,373179.875000,63.000000,1.000000
440432.13999512,4464160.33000366,6.46999979,22,255,0,3.000000,3.000000,373179.968750,63.000000,1.000000
440429.52000000,4464162.11000244,7.28999996,57,255,0,3.000000,5.000000,373179.968750,63.000000,1.000000
440431.46999695,4464159.42999451,6.55999994,26,255,0,3.000000,19.000000,373180.093750,63.000000,1.000000
440430.38000061,4464159.70999329,6.25000000,12,255,0,3.000000,3.000000,373180.281250,63.000000,1.000000
440432.74000122,4464161.33999817,6.53000021,24,255,0,3.000000,1.000000,373180.281250,63.000000,1.000000
440432.05999329,4464160.83999817,6.32000017,15,255,0,3.000000,1.000000,373180.375000,63.000000,1.000000
440429.49999573,4464161.59999268,7.30999994,58,255,0,3.000000,3.000000,373180.375000,63.000000,1.000000
440431.35999634,4464161.99000732,6.50000000,23,255,0,3.000000,17.000000,373180.468750,63.000000,1.000000
440431.07999756,4464160.05000488,6.51999998,24,255,0,3.000000,17.000000,373180.593750,63.000000,1.000000
440430.42998840,4464161.74998657,6.71999979,32,255,0,3.000000,17.000000,373180.781250,63.000000,1.000000
440430.13000061,4464160.20999329,6.98000002,44,255,0,3.000000,1.000000,373180.875000,63.000000,1.000000
440432.53998901,4464161.62999146,6.55000019,26,255,0,3.000000,14.000000,373180.875000,63.000000,1.000000
440429.49999573,4464160.28000061,6.96000004,43,255,0,3.000000,1.000000,373180.968750,63.000000,1.000000
440431.58999207,4464160.44000427,6.26000023,13,255,0,3.000000,30.000000,373181.093750,63.000000,1.000000
440431.43999817,4464162.18000977,6.78999996,35,255,0,3.000000,14.000000,373181.093750,63.000000,1.000000
440430.17998840,4464160.61000244,7.09000015,49,255,0,3.000000,30.000000,373181.375000,63.000000,1.000000
440432.25999023,4464160.67999451,6.32999992,16,255,0,3.000000,28.000000,373181.468750,63.000000,1.000000
440429.61999084,4464161.43000977,7.40000010,62,255,0,3.000000,30.000000,373181.468750,63.000000,1.000000
440429.36999084,4464159.80000488,6.69999981,32,255,0,3.000000,30.000000,373181.593750,63.000000,1.000000
440431.19999268,4464159.70999329,6.46000004,21,255,0,3.000000,28.000000,373181.687500,63.000000,1.000000
440430.49999573,4464159.92000000,6.69999981,32,255,0,3.000000,28.000000,373181.781250,63.000000,1.000000
440429.69999268,4464161.33999817,7.44999981,64,255,0,3.000000,12.000000,373181.875000,63.000000,1.000000
440429.38999512,4464160.02000610,7.07000017,47,255,0,3.000000,12.000000,373181.968750,63.000000,1.000000
440429.27000000,4464161.71998779,7.30999994,58,255,0,3.000000,28.000000,373181.968750,63.000000,1.000000
440431.35999634,4464161.83000366,6.63999987,29,255,0,3.000000,10.000000,373182.093750,63.000000,1.000000
440430.90999939,4464159.97999756,6.30000019,14,255,0,3.000000,10.000000,373182.187500,63.000000,1.000000
440430.31998779,4464160.84999268,6.88000011,39,255,0,3.000000,26.000000,373182.281250,63.000000,1.000000
440432.39998962,4464161.11999695,6.19999981,10,255,0,3.000000,8.000000,373182.375000,63.000000,1.000000
440429.38000061,4464159.83999817,6.76000023,35,255,0,3.000000,26.000000,373182.468750,63.000000,1.000000
440431.02999451,4464162.27000610,7.51000023,67,255,0,3.000000,24.000000,373182.593750,63.000000,1.000000
440431.74000122,4464159.53999512,6.53000021,24,255,0,3.000000,6.000000,373182.875000,63.000000,1.000000
440431.55999329,4464161.71998779,6.67000008,30,255,0,3.000000,22.000000,373182.875000,63.000000,1.000000
440431.46999695,4464160.50999634,6.19999981,10,255,0,3.000000,6.000000,373182.968750,63.000000,1.000000
440429.99999573,4464160.36999695,6.98000002,44,255,0,3.000000,22.000000,373183.187500,63.000000,1.000000
440429.85999634,4464161.81999390,6.98999977,44,255,0,3.000000,22.000000,373183.187500,63.000000,1.000000
440432.41999390,4464160.00000183,6.34999990,17,255,0,3.000000,20.000000,373183.281250,54.000000,1.000000
440429.55999329,4464161.74000732,7.30000019,58,255,0,3.000000,22.000000,373183.281250,63.000000,1.000000
440432.21999695,4464160.11999695,6.40999985,19,255,0,3.000000,4.000000,373183.375000,54.000000,1.000000
440429.44999268,4464160.75000183,6.53999996,25,255,0,3.000000,6.000000,373183.468750,63.000000,1.000000
440431.72999146,4464160.67999451,6.48999977,23,255,0,3.000000,4.000000,373183.593750,54.000000,1.000000
440431.90999939,4464160.17999451,6.46999979,22,255,0,3.000000,20.000000,373183.687500,54.000000,1.000000
440429.24999573,4464161.53999512,6.53999996,25,255,0,3.000000,22.000000,373183.687500,63.000000,1.000000
440431.35999634,4464160.16000549,6.34000015,16,255,0,3.000000,4.000000,373183.781250,54.000000,1.000000
440430.10999634,4464160.83999817,7.21999979,54,255,0,3.000000,20.000000,373183.875000,54.000000,1.000000
440432.33999207,4464161.05000488,6.28000021,14,255,0,3.000000,2.000000,373183.968750,100.000000,1.000000
440430.96999695,4464159.74000732,6.48000002,23,255,0,3.000000,18.000000,373184.187500,100.000000,1.000000
440430.71999695,4464160.30999939,6.26000023,13,255,0,3.000000,18.000000,373184.281250,100.000000,1.000000
440432.88999512,4464160.77000610,6.46000004,21,255,0,3.000000,0.000000,373184.375000,63.000000,1.000000
440431.44999268,4464161.55000488,6.92000008,41,255,0,3.000000,0.000000,373184.593750,63.000000,1.000000
440430.69999268,4464159.61999695,6.92999983,41,255,0,3.000000,16.000000,373184.687500,63.000000,1.000000
440429.94999268,4464160.36000244,7.05000019,47,255,0,3.000000,16.000000,373184.875000,63.000000,1.000000
440428.82999756,4464160.03000061,7.03999996,47,255,0,4.000000,7.000000,373224.187500,63.000000,1.000000
440428.61999084,4464161.56001465,6.71999979,32,255,0,4.000000,5.000000,373224.687500,63.000000,1.000000
440429.54999878,4464160.53000061,7.09000015,49,255,0,4.000000,12.000000,373227.312500,63.000000,1.000000
440430.07999756,4464162.39000122,3.64000010,0,155,99,2.000000,21.000000,373098.750000,63.000000,1.000000
440428.60999634,4464162.56001465,4.36000013,0,186,68,2.000000,11.000000,373096.531250,63.000000,1.000000
440429.27000000,4464163.06001465,3.50000000,0,149,105,2.000000,9.000000,373097.437500,63.000000,1.000000
440428.50999023,4464162.62999146,3.91000009,0,167,87,2.000000,7.000000,373097.937500,63.000000,1.000000
440433.52999451,4464157.50999634,3.46000004,0,148,106,2.000000,7.000000,373099.031250,63.000000,1.000000
440430.96999695,4464162.59001343,3.19000006,0,136,118,2.000000,17.000000,373100.125000,63.000000,1.000000
440429.49999573,4464162.56001465,4.21000004,0,180,74,2.000000,13.000000,373096.031250,49.000000,1.000000
440432.52000000,4464161.05999939,4.01000023,0,171,83,2.000000,13.000000,373096.750000,49.000000,1.000000
440433.20998718,4464157.53999512,3.49000001,0,149,105,2.000000,13.000000,373097.031250,51.000000,1.000000
440429.24000122,4464162.94999878,3.65000010,0,156,98,2.000000,25.000000,373097.437500,63.000000,1.000000
440430.82999756,4464162.68998901,3.31999993,0,142,112,2.000000,25.000000,373097.750000,63.000000,1.000000
440428.78998901,4464162.64000122,4.25000000,0,181,73,2.000000,1.000000,373099.843750,63.000000,1.000000
440432.07999756,4464161.75999634,3.41000009,0,145,109,2.000000,19.000000,373099.937500,63.000000,1.000000
440428.67998840,4464162.68998901,3.85999990,0,165,89,2.000000,14.000000,373100.250000,63.000000,1.000000
440432.35000183,4464161.31999390,4.21000004,0,180,74,2.000000,1.000000,373100.437500,63.000000,1.000000
440432.52999451,4464161.47999756,4.15999985,0,177,77,2.000000,30.000000,373101.031250,63.000000,1.000000
440429.02999451,4464163.00999634,3.80999994,0,163,91,2.000000,8.000000,373102.031250,63.000000,1.000000
440431.88999512,4464159.44999878,3.97000003,0,169,85,3.000000,25.000000,373178.593750,63.000000,1.000000
440431.99999573,4464158.80000488,3.43000007,0,146,108,3.000000,23.000000,373178.968750,63.000000,1.000000
440432.28998901,4464158.86000244,4.11000013,0,175,79,3.000000,14.000000,373180.968750,63.000000,1.000000
440431.75999023,4464158.92000000,3.73000002,0,160,94,4.000000,8.000000,373229.093750,63.000000,1.000000
440429.52000000,4464162.65001099,4.28000021,0,183,71,2.000000,22.000000,373102.750000,63.000000,1.000000
440429.07999756,4464162.81001465,3.65000010,0,156,98,3.000000,1.000000,373181.093750,63.000000,1.000000
440428.06998779,4464162.83000366,3.59999990,0,154,100,2.000000,29.000000,373095.625000,50.000000,1.000000
440427.95998718,4464161.36000244,4.30999994,0,184,70,2.000000,29.000000,373095.625000,50.000000,1.000000
440428.58999207,4464162.52998535,4.38999987,0,188,66,2.000000,13.000000,373095.718750,49.000000,1.000000
440428.68999817,4464162.80000488,3.63000011,0,155,99,2.000000,11.000000,373096.531250,63.000000,1.000000
440432.56998779,4464161.36999695,4.07999992,0,174,80,2.000000,27.000000,373097.531250,63.000000,1.000000
440429.00999023,4464162.99998657,3.95000005,0,169,85,2.000000,23.000000,373098.031250,63.000000,1.000000
440428.94999268,4464162.92000000,3.74000001,0,160,94,2.000000,19.000000,373099.250000,63.000000,1.000000
440428.81998779,4464163.06001465,3.96000004,0,169,85,2.000000,1.000000,373099.843750,63.000000,1.000000
440431.00999023,4464162.89000122,3.25999999,0,139,115,2.000000,1.000000,373100.125000,63.000000,1.000000
440429.27999451,4464163.03999512,4.15999985,0,177,77,2.000000,28.000000,373100.937500,63.000000,1.000000
440429.74000122,4464162.90999023,4.28000021,0,183,71,2.000000,28.000000,373101.031250,63.000000,1.000000
440432.99000122,4464157.39999573,3.67000008,0,157,97,2.000000,12.000000,373101.750000,63.000000,1.000000
440433.24000122,4464161.64000122,3.81999993,0,163,91,3.000000,29.000000,373177.093750,49.000000,1.000000
440429.81998779,4464159.47000305,4.42999983,0,189,65,3.000000,11.000000,373178.468750,63.000000,1.000000
440431.89998962,4464158.80999939,3.25999999,0,139,115,3.000000,9.000000,373178.593750,63.000000,1.000000
440432.43999817,4464158.75000183,4.17000008,0,178,76,3.000000,23.000000,373178.875000,63.000000,1.000000
440432.61999084,4464158.58000366,3.75000000,0,160,94,3.000000,21.000000,373179.375000,63.000000,1.000000
440429.33999207,4464162.77000610,3.58999991,0,154,100,3.000000,8.000000,373182.968750,63.000000,1.000000
440431.82999756,4464158.94999878,4.26999998,0,183,71,4.000000,24.000000,373229.093750,63.000000,1.000000
440428.05999329,4464162.49000732,3.69000006,0,157,97,2.000000,13.000000,373095.625000,50.000000,1.000000
440428.71999695,4464162.77000610,3.67000008,0,157,97,2.000000,13.000000,373095.718750,50.000000,1.000000
440428.70998718,4464162.52998535,3.71000004,0,158,96,2.000000,29.000000,373095.718750,50.000000,1.000000
440428.99000122,4464163.06001465,3.86999989,0,166,88,2.000000,29.000000,373095.843750,49.000000,1.000000
440429.16999390,4464162.83000366,3.68000007,0,157,97,2.000000,29.000000,373095.937500,49.000000,1.000000
440429.13000061,4464162.53999512,3.86999989,0,166,88,2.000000,13.000000,373095.937500,49.000000,1.000000
440429.49999573,4464162.94999878,4.21000004,0,180,74,2.000000,29.000000,373096.031250,49.000000,1.000000
440430.28998901,4464162.36000244,3.75999999,0,160,94,2.000000,29.000000,373096.125000,50.000000,1.000000
440430.10000183,4464161.74000732,4.23999977,0,181,73,2.000000,29.000000,373096.125000,49.000000,1.000000
440430.82999756,4464162.68998901,3.10999990,0,133,121,2.000000,29.000000,373096.343750,50.000000,1.000000
440428.18999817,4464162.40999023,3.61999989,0,154,100,2.000000,11.000000,373096.437500,63.000000,1.000000
440428.66999390,4464162.59999268,3.74000001,0,160,94,2.000000,27.000000,373096.531250,63.000000,1.000000
440429.18999817,4464162.89000122,3.59999990,0,154,100,2.000000,27.000000,373096.625000,63.000000,1.000000
440429.15999939,4464162.64000122,3.85999990,0,165,89,2.000000,11.000000,373096.625000,63.000000,1.000000
440429.60999634,4464162.46998779,4.17999983,0,178,76,2.000000,11.000000,373096.750000,63.000000,1.000000
440429.94999268,4464162.33000366,3.42000008,0,146,108,2.000000,11.000000,373096.843750,63.000000,1.000000
440429.94999268,4464162.21998779,3.56999993,0,152,102,2.000000,11.000000,373096.937500,63.000000,1.000000
440430.29999878,4464162.40999023,3.75000000,0,160,94,2.000000,27.000000,373097.031250,63.000000,1.000000
440430.82999756,4464162.69999878,3.27999997,0,140,114,2.000000,27.000000,373097.125000,63.000000,1.000000
440429.68999817,4464162.71000854,4.19999981,0,180,74,2.000000,25.000000,373097.531250,63.000000,1.000000
440430.33999207,4464162.44999878,3.55999994,0,152,102,2.000000,25.000000,373097.625000,63.000000,1.000000
440433.13000061,4464157.47999756,3.59999990,0,154,100,2.000000,27.000000,373097.625000,63.000000,1.000000
440427.79999878,4464161.43998901,4.44999981,0,190,64,2.000000,23.000000,373097.750000,63.000000,1.000000
440433.66999390,4464157.38000671,3.28999996,0,140,114,2.000000,27.000000,373097.750000,63.000000,1.000000
440429.63000061,4464162.71000854,3.28999996,0,140,114,2.000000,23.000000,373098.125000,63.000000,1.000000
440429.55999329,4464162.59999268,4.26000023,0,182,72,2.000000,23.000000,373098.125000,63.000000,1.000000
440430.08999207,4464162.43998901,3.70000005,0,158,96,2.000000,7.000000,373098.250000,63.000000,1.000000
440433.31998779,4464157.45999329,2.74000001,0,117,137,2.000000,9.000000,373098.343750,63.000000,1.000000
440428.04999878,4464163.03999512,3.75000000,0,160,94,2.000000,5.000000,373098.437500,63.000000,1.000000
440430.95998718,4464162.61000244,3.23000002,0,138,116,2.000000,23.000000,373098.437500,63.000000,1.000000
440428.72999146,4464162.81001465,3.74000001,0,160,94,2.000000,5.000000,373098.531250,63.000000,1.000000
440428.70998718,4464162.64000122,3.92000008,0,168,86,2.000000,21.000000,373098.531250,63.000000,1.000000
440429.54999878,4464162.77000610,4.19000006,0,179,75,2.000000,5.000000,373098.625000,63.000000,1.000000
440430.10000183,4464162.62001221,3.57999992,0,153,101,2.000000,5.000000,373098.750000,63.000000,1.000000
440430.40999939,4464162.37001221,3.92000008,0,168,86,2.000000,5.000000,373098.843750,63.000000,1.000000
440433.13000061,4464157.41000549,2.86999989,0,122,132,2.000000,7.000000,373098.843750,63.000000,1.000000
440428.41999390,4464162.90999023,3.51999998,0,151,103,2.000000,3.000000,373099.125000,63.000000,1.000000
440429.53998901,4464162.93000977,3.27999997,0,140,114,2.000000,3.000000,373099.343750,63.000000,1.000000
440429.52000000,4464162.53999512,4.25000000,0,181,73,2.000000,19.000000,373099.343750,63.000000,1.000000
440430.07999756,4464162.69999878,3.56999993,0,152,102,2.000000,19.000000,373099.437500,63.000000,1.000000
440433.20998718,4464157.53999512,3.55999994,0,152,102,2.000000,21.000000,373099.531250,63.000000,1.000000
440428.78998901,4464162.78999512,3.80999994,0,163,91,2.000000,17.000000,373099.843750,63.000000,1.000000
440429.25999023,4464163.15999023,3.72000003,0,159,95,2.000000,17.000000,373099.937500,63.000000,1.000000
440429.27000000,4464163.05000488,4.23000002,0,180,74,2.000000,1.000000,373099.937500,63.000000,1.000000
440428.71999695,4464162.71998779,4.40999985,0,189,65,2.000000,30.000000,373100.250000,63.000000,1.000000
440429.27999451,4464162.96998779,3.50999999,0,150,104,2.000000,14.000000,373100.343750,63.000000,1.000000
440429.58999207,4464162.86000244,4.28000021,0,183,71,2.000000,30.000000,373100.437500,63.000000,1.000000
440429.53998901,4464162.49000732,4.34000015,0,186,68,2.000000,14.000000,373100.437500,63.000000,1.000000
440432.65999939,4464161.09999268,4.38999987,0,188,66,2.000000,1.000000,373100.531250,63.000000,1.000000
440433.02999451,4464157.50000183,2.84999990,0,121,133,2.000000,1.000000,373100.625000,63.000000,1.000000
440433.06998779,4464157.66000549,3.56999993,0,152,102,2.000000,17.000000,373100.625000,63.000000,1.000000
440433.55999329,4464157.59999268,3.44000006,0,147,107,2.000000,1.000000,373100.750000,63.000000,1.000000
440429.24999573,4464163.09001343,3.75999999,0,160,94,2.000000,12.000000,373100.937500,63.000000,1.000000
440432.04999878,4464161.64000122,3.48000002,0,148,106,2.000000,14.000000,373100.937500,63.000000,1.000000
440429.66999390,4464162.46998779,4.21999979,0,180,74,2.000000,12.000000,373101.031250,63.000000,1.000000
440432.96999695,4464157.61000244,2.89000010,0,123,131,2.000000,14.000000,373101.250000,63.000000,1.000000
440432.99000122,4464157.42000000,3.71000004,0,158,96,2.000000,14.000000,373101.250000,63.000000,1.000000
440433.57999756,4464157.64000122,3.44000006,0,147,107,2.000000,30.000000,373101.343750,63.000000,1.000000
440428.81998779,4464162.87999146,3.75000000,0,160,94,2.000000,10.000000,373101.437500,63.000000,1.000000
440429.35000183,4464163.21998779,3.65000010,0,156,98,2.000000,26.000000,373101.531250,63.000000,1.000000
440433.16999390,4464157.63000671,2.89000010,0,123,131,2.000000,28.000000,373101.843750,63.000000,1.000000
440433.25999023,4464157.69000427,3.66000009,0,157,97,2.000000,12.000000,373101.843750,63.000000,1.000000
440428.11999084,4464163.19999878,3.79999995,0,163,91,2.000000,22.000000,373102.437500,63.000000,1.000000
440428.71999695,4464163.06001465,3.96000004,0,169,85,2.000000,22.000000,373102.531250,63.000000,1.000000
440429.19999268,4464163.31999390,3.75999999,0,160,94,2.000000,22.000000,373102.625000,63.000000,1.000000
440432.03998901,4464161.34999268,3.75999999,0,160,94,2.000000,24.000000,373102.625000,63.000000,1.000000
440429.60000183,4464162.94999878,4.34000015,0,186,68,2.000000,6.000000,373102.750000,63.000000,1.000000
440432.46999695,4464161.55000488,4.19999981,0,180,74,2.000000,8.000000,373102.750000,63.000000,1.000000
440433.47999146,4464157.77000610,3.45000005,0,148,106,2.000000,24.000000,373102.937500,63.000000,1.000000
440433.39998962,4464157.36000244,3.49000001,0,149,105,2.000000,8.000000,373102.937500,63.000000,1.000000
440430.69999268,4464162.77000610,4.07000017,0,174,80,2.000000,4.000000,373103.531250,54.000000,1.000000
440430.92998840,4464162.78999512,3.44000006,0,147,107,2.000000,4.000000,373103.625000,54.000000,1.000000
440431.61999084,4464161.92000000,3.47000003,0,148,106,2.000000,4.000000,373103.843750,54.000000,1.000000
440432.66999390,4464161.30999939,4.28999996,0,183,71,2.000000,4.000000,373104.031250,54.000000,1.000000
440433.22999146,4464157.63000671,3.61999989,0,154,100,2.000000,4.000000,373104.343750,56.000000,1.000000
440429.41999390,4464163.15999023,3.29999995,0,141,113,2.000000,0.000000,373104.625000,63.000000,1.000000
440429.46999695,4464163.03999512,3.58999991,0,154,100,2.000000,16.000000,373104.625000,63.000000,1.000000
440432.38999512,4464161.52000610,4.34000015,0,186,68,2.000000,16.000000,373105.125000,63.000000,1.000000
440433.52999451,4464157.99000732,3.34999990,0,143,111,2.000000,16.000000,373105.750000,63.000000,1.000000
440433.45998718,4464160.08000366,4.30000019,0,183,71,3.000000,13.000000,373176.968750,50.000000,1.000000
440433.15999939,4464161.68998901,3.88000011,0,166,88,3.000000,13.000000,373176.968750,49.000000,1.000000
440433.14998962,4464161.89000122,3.92000008,0,168,86,3.000000,29.000000,373176.968750,49.000000,1.000000
440433.50999023,4464160.03999512,4.21000004,0,180,74,3.000000,29.000000,373177.093750,50.000000,1.000000
440433.52000000,4464160.30999939,4.38999987,0,188,66,3.000000,13.000000,373177.093750,50.000000,1.000000
440433.22999146,4464161.93998901,3.93000007,0,168,86,3.000000,13.000000,373177.093750,49.000000,1.000000
440433.15999939,4464160.13000671,3.89000010,0,166,88,3.000000,13.000000,373177.187500,50.000000,1.000000
440433.24000122,4464160.08000366,3.94000006,0,169,85,3.000000,29.000000,373177.281250,50.000000,1.000000
440432.42998840,4464158.86999695,4.19999981,0,180,74,3.000000,29.000000,373177.468750,51.000000,1.000000
440429.69999268,4464159.50000183,4.32000017,0,185,69,3.000000,15.000000,373177.468750,63.000000,1.000000
440432.47999146,4464158.84999268,4.11000013,0,175,79,3.000000,25.000000,373178.468750,63.000000,1.000000
440429.80999329,4464159.38000671,4.44999981,0,190,64,3.000000,9.000000,373178.875000,63.000000,1.000000
440433.68999817,4464160.03999512,4.28000021,0,183,71,3.000000,21.000000,373179.187500,63.000000,1.000000
440432.39998962,4464158.72000305,4.03000021,0,172,82,3.000000,21.000000,373179.468750,63.000000,1.000000
440432.29999878,4464158.72000305,4.11000013,0,175,79,3.000000,17.000000,373180.375000,63.000000,1.000000
440433.57999756,4464160.02000610,4.32000017,0,185,69,3.000000,12.000000,373181.281250,63.000000,1.000000
440432.25999023,4464158.70999329,4.01999998,0,171,83,3.000000,28.000000,373181.593750,63.000000,1.000000
440429.14998962,4464162.65001099,3.68000007,0,157,97,3.000000,26.000000,373182.593750,63.000000,1.000000
440429.13999512,4464162.96998779,3.61999989,0,154,100,3.000000,10.000000,373182.593750,63.000000,1.000000
440429.56998779,4464162.80000488,3.85999990,0,165,89,3.000000,8.000000,373182.875000,63.000000,1.000000
440429.35999634,4464162.44999878,3.55999994,0,152,102,3.000000,24.000000,373182.968750,63.000000,1.000000
440429.31998779,4464162.96998779,3.60999990,0,154,100,3.000000,24.000000,373182.968750,63.000000,1.000000
440429.28998901,4464160.69000427,4.17999983,0,178,76,3.000000,6.000000,373183.781250,63.000000,1.000000
440429.81998779,4464162.62999146,3.91000009,0,167,87,3.000000,0.000000,373185.187500,63.000000,1.000000
440429.30999329,4464162.62999146,3.75000000,0,160,94,3.000000,16.000000,373185.281250,63.000000,1.000000
440428.80999329,4464160.49000732,4.15000010,0,177,77,4.000000,13.000000,373222.406250,61.000000,1.000000
440432.99999573,4464159.97000305,4.09000015,0,174,80,4.000000,29.000000,373223.093750,60.000000,1.000000
440429.63999512,4464159.61999695,4.19000006,0,179,75,4.000000,17.000000,373226.093750,63.000000,1.000000
440431.89998962,4464158.94000427,4.26000023,0,182,72,4.000000,26.000000,373228.500000,63.000000,1.000000
440431.85999634,4464158.89000122,3.72000003,0,159,95,4.000000,10.000000,373228.500000,63.000000,1.000000
440431.64998962,4464158.91000549,3.55999994,0,152,102,4.000000,4.000000,373230.000000,60.000000,1.000000
440427.42998840,4464161.52000610,5.38000011,0,230,24,2.000000,3.000000,373098.843750,63.000000,1.000000
440432.52000000,4464159.74000732,5.42000008,0,232,22,3.000000,29.000000,373177.468750,52.000000,1.000000
440432.77999451,4464159.55999939,5.55999994,0,238,16,3.000000,3.000000,373179.875000,63.000000,1.000000
440431.11999084,4464160.78000061,6.44000006,20,255,0,4.000000,1.000000,373226.312500,63.000000,1.000000
440430.08999207,4464162.37001221,6.48999977,23,255,0,2.000000,19.000000,373099.437500,63.000000,1.000000
440428.38000061,4464162.90999023,6.09999990,6,255,0,2.000000,16.000000,373104.343750,63.000000,1.000000
440433.02000000,4464160.83999817,6.05999994,4,255,0,3.000000,13.000000,373177.375000,52.000000,1.000000
440432.52999451,4464159.25000183,5.30999994,0,227,27,3.000000,25.000000,373178.468750,63.000000,1.000000
440433.78998901,4464160.58000366,5.73000002,0,245,9,3.000000,23.000000,373178.687500,63.000000,1.000000
440432.45998718,4464159.14000122,5.26999998,0,225,29,3.000000,23.000000,373178.875000,63.000000,1.000000
440431.36999084,4464158.19000427,5.40999985,0,231,23,3.000000,23.000000,373179.187500,63.000000,1.000000
440428.56998779,4464161.28000061,6.28000021,14,255,0,3.000000,9.000000,373179.187500,63.000000,1.000000
440433.13000061,4464160.05999939,5.90000010,0,252,2,3.000000,14.000000,373180.781250,63.000000,1.000000
440432.81998779,4464159.22999756,5.26999998,0,225,29,3.000000,14.000000,373180.875000,63.000000,1.000000
440429.13000061,4464162.14000122,6.40000010,19,255,0,3.000000,24.000000,373182.875000,63.000000,1.000000
440432.44999268,4464159.38000671,5.51000023,0,236,18,3.000000,20.000000,373183.375000,53.000000,1.000000
440428.07999756,4464161.14999573,6.38000011,18,255,0,4.000000,11.000000,373222.812500,63.000000,1.000000
440431.20998718,4464158.31999390,4.61000013,0,197,57,4.000000,4.000000,373229.906250,59.000000,1.000000
440429.52000000,4464159.72999756,6.48999977,23,255,0,2.000000,11.000000,373096.937500,63.000000,1.000000
440430.44999268,4464161.59001343,6.53999996,25,255,0,2.000000,21.000000,373098.937500,63.000000,1.000000
440431.58999207,4464160.64000122,6.30999994,15,255,0,2.000000,3.000000,373099.843750,63.000000,1.000000
440432.13000061,4464161.03999512,6.15999985,8,255,0,2.000000,10.000000,373102.031250,63.000000,1.000000
440430.81998779,4464159.81999390,6.57999992,26,255,0,3.000000,25.000000,373178.781250,63.000000,1.000000
440429.64998962,4464159.69999878,6.19000006,10,255,0,3.000000,3.000000,373180.375000,63.000000,1.000000
440429.82999756,4464160.41000549,6.51000023,23,255,0,3.000000,10.000000,373182.375000,63.000000,1.000000
440432.30999329,4464159.86000244,5.90000010,0,252,2,3.000000,20.000000,373183.375000,54.000000,1.000000
440430.00999023,4464161.39999573,6.46999979,22,255,0,3.000000,16.000000,373184.875000,63.000000,1.000000
440430.42998840,4464163.12001221,5.50000000,0,235,19,3.000000,15.000000,373177.281250,63.000000,1.000000
440431.67998840,4464162.81999390,5.67999983,0,243,11,3.000000,25.000000,373178.593750,63.000000,1.000000
440429.80999329,4464159.31999390,4.57000017,0,195,59,3.000000,7.000000,373179.468750,63.000000,1.000000
440431.41999390,4464162.12001221,6.63000011,29,255,0,3.000000,21.000000,373179.593750,63.000000,1.000000
440429.71999695,4464159.28000061,5.44000006,0,233,21,3.000000,5.000000,373179.968750,63.000000,1.000000
440431.41999390,4464163.11000244,6.23000002,11,255,0,3.000000,6.000000,373182.968750,63.000000,1.000000
440432.66999390,4464160.88000671,4.67000008,0,200,54,2.000000,29.000000,373096.843750,49.000000,1.000000
440427.70998718,4464161.56001465,6.53999996,25,255,0,2.000000,7.000000,373097.750000,63.000000,1.000000
440429.46999695,4464161.33999817,5.44999981,0,233,21,2.000000,23.000000,373098.125000,63.000000,1.000000
440432.55999329,4464160.72999756,5.59999990,0,240,14,2.000000,24.000000,373102.750000,63.000000,1.000000
440433.14998962,4464160.11999695,5.88000011,0,252,2,3.000000,25.000000,373178.281250,63.000000,1.000000
440432.81998779,4464159.69999878,5.48999977,0,235,19,3.000000,25.000000,373178.375000,63.000000,1.000000
440432.28998901,4464161.38000671,6.05000019,4,255,0,3.000000,7.000000,373178.875000,63.000000,1.000000
440432.13000061,4464162.18998901,5.32999992,0,228,26,3.000000,21.000000,373179.468750,63.000000,1.000000
440431.27000000,4464157.94999878,4.98999977,0,213,41,3.000000,1.000000,373180.593750,63.000000,1.000000
440432.99999573,4464162.18998901,5.63000011,0,241,13,3.000000,30.000000,373180.687500,63.000000,1.000000
440432.77999451,4464159.42000000,5.30999994,0,227,27,3.000000,30.000000,373180.875000,63.000000,1.000000
440432.40999939,4464161.97999756,5.23999977,0,224,30,3.000000,20.000000,373183.375000,53.000000,1.000000
440430.36999084,4464160.03999512,6.36999989,17,255,0,2.000000,21.000000,373098.937500,63.000000,1.000000
440433.27000000,4464161.00000183,6.63000011,29,255,0,3.000000,27.000000,373177.781250,63.000000,1.000000
440431.54999878,4464158.97000305,6.01000023,2,255,0,3.000000,27.000000,373178.093750,63.000000,1.000000
440432.78998901,4464160.61999695,6.28000021,14,255,0,3.000000,25.000000,373178.375000,63.000000,1.000000
440429.24000122,4464160.89000122,6.57000017,26,255,0,3.000000,25.000000,373179.093750,63.000000,1.000000
440430.99999573,4464159.64999573,6.63000011,29,255,0,3.000000,5.000000,373179.687500,63.000000,1.000000
440431.50999023,4464160.33999817,6.11000013,6,255,0,3.000000,1.000000,373180.468750,63.000000,1.000000
440430.65999939,4464159.13000671,6.32000017,15,255,0,3.000000,1.000000,373180.781250,63.000000,1.000000
440430.30999329,4464159.69999878,6.30999994,15,255,0,3.000000,30.000000,373181.375000,63.000000,1.000000
440428.96999695,4464160.91000549,6.46999979,22,255,0,3.000000,28.000000,373182.093750,63.000000,1.000000
440432.38000061,4464160.99000732,6.21999979,11,255,0,3.000000,20.000000,373183.281250,54.000000,1.000000
440431.13000061,4464160.84999268,6.44999981,21,255,0,4.000000,24.000000,373228.906250,63.000000,1.000000
440428.67998840,4464162.43998901,5.75000000,0,246,8,2.000000,13.000000,373095.843750,48.000000,1.000000
440428.79999878,4464161.90001099,6.11000013,6,255,0,2.000000,13.000000,373095.937500,48.000000,1.000000
440431.32999756,4464162.81999390,5.23999977,0,224,30,2.000000,29.000000,373096.531250,48.000000,1.000000
440431.85999634,4464162.05000488,5.40999985,0,231,23,2.000000,13.000000,373096.625000,48.000000,1.000000
440429.60999634,4464158.27000610,5.28000021,0,226,28,2.000000,27.000000,373096.937500,63.000000,1.000000
440427.61999084,4464161.56001465,6.48999977,23,255,0,2.000000,9.000000,373097.125000,63.000000,1.000000
440431.27000000,4464160.86999695,5.80000019,0,248,6,2.000000,27.000000,373097.343750,63.000000,1.000000
440430.61999084,4464162.44999878,6.36999989,17,255,0,2.000000,9.000000,373097.750000,63.000000,1.000000
440427.45998718,4464161.33000366,6.46999979,22,255,0,2.000000,21.000000,373098.343750,63.000000,1.000000
440430.88000061,4464162.46000854,4.86000013,0,208,46,2.000000,7.000000,373098.437500,63.000000,1.000000
440431.11999084,4464162.52000610,6.05999994,4,255,0,2.000000,3.000000,373099.625000,63.000000,1.000000
440431.38000061,4464161.96998779,4.96999979,0,213,41,2.000000,3.000000,373099.750000,63.000000,1.000000
440428.82999756,4464162.21000854,6.28000021,14,255,0,2.000000,17.000000,373099.843750,63.000000,1.000000
440432.02999451,4464160.89999573,6.05999994,4,255,0,2.000000,3.000000,373099.937500,63.000000,1.000000
440430.77999451,4464159.77000610,5.88999987,0,252,2,2.000000,1.000000,373100.125000,63.000000,1.000000
440428.85999634,4464162.93998901,5.90999985,0,253,1,2.000000,30.000000,373100.250000,63.000000,1.000000
440431.35000183,4464159.36999695,5.48999977,0,235,19,2.000000,1.000000,373100.250000,63.000000,1.000000
440429.36999084,4464162.69999878,5.42000008,0,232,22,2.000000,14.000000,373100.343750,63.000000,1.000000
440432.67998840,4464161.00000183,4.67999983,0,200,54,2.000000,17.000000,373100.531250,63.000000,1.000000
440430.82999756,4464163.02000610,5.53999996,0,237,17,2.000000,30.000000,373100.625000,63.000000,1.000000
440428.38999512,4464162.59999268,6.05999994,4,255,0,2.000000,28.000000,373100.750000,63.000000,1.000000
440429.36999084,4464162.71998779,5.38000011,0,230,24,2.000000,12.000000,373100.937500,63.000000,1.000000
440431.45998718,4464162.99998657,5.59000015,0,239,15,2.000000,12.000000,373101.343750,63.000000,1.000000
440428.38999512,4464162.06999390,5.98000002,1,255,0,2.000000,10.000000,373101.343750,63.000000,1.000000
440429.05999329,4464162.71000854,5.84999990,0,250,4,2.000000,10.000000,373101.437500,63.000000,1.000000
440429.04999878,4464162.30000488,6.26000023,13,255,0,2.000000,10.000000,373101.437500,63.000000,1.000000
440430.77999451,4464159.78999512,6.07000017,5,255,0,2.000000,10.000000,373101.843750,63.000000,1.000000
440432.18999817,4464162.18000977,5.44999981,0,233,21,2.000000,26.000000,373102.031250,63.000000,1.000000
440431.97999146,4464160.24000732,5.94000006,0,255,0,2.000000,10.000000,373102.031250,63.000000,1.000000
440430.70998718,4464163.46000854,5.98999977,1,255,0,2.000000,8.000000,373102.250000,63.000000,1.000000
440430.95998718,4464162.43000977,5.11000013,0,219,35,2.000000,8.000000,373102.343750,63.000000,1.000000
440429.45998718,4464162.64000122,5.57000017,0,238,16,2.000000,6.000000,373102.625000,63.000000,1.000000
440432.58999207,4464161.22000305,5.28999996,0,226,28,2.000000,24.000000,373102.750000,63.000000,1.000000
440428.52000000,4464162.65001099,6.05000019,4,255,0,2.000000,20.000000,373102.937500,53.000000,1.000000
440429.03998901,4464162.37001221,5.57999992,0,239,15,2.000000,4.000000,373103.125000,53.000000,1.000000
440429.16999390,4464162.90001099,5.63000011,0,241,13,2.000000,4.000000,373103.250000,53.000000,1.000000
440430.60999634,4464163.17000000,6.38000011,18,255,0,2.000000,4.000000,373103.437500,52.000000,1.000000
440432.55999329,4464160.86999695,5.51000023,0,236,18,2.000000,16.000000,373105.125000,63.000000,1.000000
440432.97999146,4464159.80000488,5.51999998,0,236,18,3.000000,31.000000,373176.687500,63.000000,1.000000
440433.74000122,4464160.53999512,4.67000008,0,200,54,3.000000,29.000000,373176.875000,50.000000,1.000000
440433.67998840,4464160.58999817,5.84000015,0,250,4,3.000000,29.000000,373176.968750,51.000000,1.000000
440431.13999512,4464158.67999451,5.78000021,0,247,7,3.000000,31.000000,373177.281250,63.000000,1.000000
440432.43999817,4464161.17000000,6.07999992,5,255,0,3.000000,29.000000,373177.468750,52.000000,1.000000
440431.65999939,4464162.64000122,5.98999977,1,255,0,3.000000,13.000000,373177.593750,52.000000,1.000000
440433.24000122,4464160.83999817,6.01999998,2,255,0,3.000000,11.000000,373177.781250,63.000000,1.000000
440432.79999878,4464159.20999329,5.23999977,0,224,30,3.000000,11.000000,373177.875000,63.000000,1.000000
440430.19999268,4464159.52000610,5.40999985,0,231,23,3.000000,13.000000,373177.875000,52.000000,1.000000
440431.70998718,4464163.52000610,5.82999992,0,249,5,3.000000,11.000000,373177.968750,63.000000,1.000000
440432.78998901,4464160.00000183,5.71999979,0,245,9,3.000000,9.000000,373178.375000,63.000000,1.000000
440432.49999573,4464159.72000305,5.55999994,0,238,16,3.000000,25.000000,373178.468750,63.000000,1.000000
440432.19999268,4464162.31001465,5.42000008,0,232,22,3.000000,25.000000,373178.468750,63.000000,1.000000
440432.21999695,4464162.68000977,6.19999981,10,255,0,3.000000,25.000000,373178.468750,63.000000,1.000000
440428.63999512,4464161.00999634,5.92999983,0,254,0,3.000000,11.000000,373178.687500,63.000000,1.000000
440428.66999390,4464161.43998901,6.50000000,23,255,0,3.000000,11.000000,373178.687500,63.000000,1.000000
440432.14998962,4464162.49998657,5.36000013,0,229,25,3.000000,7.000000,373178.875000,63.000000,1.000000
440432.99000122,4464160.64000122,6.19999981,10,255,0,3.000000,5.000000,373179.281250,63.000000,1.000000
440430.24000122,4464162.78999512,5.63999987,0,241,13,3.000000,23.000000,373179.281250,63.000000,1.000000
440432.42998840,4464161.42000000,6.01000023,2,255,0,3.000000,21.000000,373179.375000,63.000000,1.000000
440432.29999878,4464160.33000366,6.05999994,4,255,0,3.000000,5.000000,373179.468750,63.000000,1.000000
440431.69999268,4464158.27000610,5.42999983,0,232,22,3.000000,21.000000,373179.593750,63.000000,1.000000
440430.75999023,4464158.78000061,5.55000019,0,237,17,3.000000,21.000000,373179.781250,63.000000,1.000000
440432.55999329,4464162.62999146,5.55000019,0,237,17,3.000000,3.000000,373179.875000,63.000000,1.000000
440432.21999695,4464159.44000427,5.25000000,0,225,29,3.000000,3.000000,373179.968750,63.000000,1.000000
440432.02000000,4464162.25999634,5.19000006,0,222,32,3.000000,19.000000,373179.968750,63.000000,1.000000
440428.79999878,4464161.62999146,6.48000002,23,255,0,3.000000,5.000000,373180.093750,63.000000,1.000000
440433.30999329,4464161.99998657,5.78000021,0,247,7,3.000000,1.000000,373180.187500,63.000000,1.000000
440431.36999084,4464162.42000000,5.80999994,0,249,5,3.000000,1.000000,373180.468750,63.000000,1.000000
440431.31998779,4464163.12001221,6.19000006,10,255,0,3.000000,17.000000,373180.468750,63.000000,1.000000
440431.27000000,4464158.17999451,5.21999979,0,223,31,3.000000,17.000000,373180.593750,63.000000,1.000000
440431.19999268,4464158.94000427,5.61000013,0,240,14,3.000000,1.000000,373180.593750,63.000000,1.000000
440430.95998718,4464162.78999512,5.11000013,0,219,35,3.000000,17.000000,373180.593750,63.000000,1.000000
440432.57999756,4464162.49998657,5.63000011,0,241,13,3.000000,30.000000,373180.875000,63.000000,1.000000
440429.64998962,4464159.11000244,5.57000017,0,238,16,3.000000,17.000000,373180.968750,63.000000,1.000000
440433.33999207,4464160.33999817,6.07000017,5,255,0,3.000000,12.000000,373181.281250,63.000000,1.000000
440433.28998901,4464161.93000977,5.80999994,0,249,5,3.000000,12.000000,373181.281250,63.000000,1.000000
440432.03998901,4464158.84999268,5.65999985,0,242,12,3.000000,12.000000,373181.593750,63.000000,1.000000
440429.52000000,4464159.22000305,5.51000023,0,236,18,3.000000,14.000000,373181.593750,63.000000,1.000000
440431.95998718,4464160.05999939,5.94999981,0,255,0,3.000000,28.000000,373181.593750,63.000000,1.000000
440430.07999756,4464159.00999634,5.32000017,0,228,26,3.000000,12.000000,373181.875000,63.000000,1.000000
440432.35000183,4464162.90999023,5.80999994,0,249,5,3.000000,26.000000,373181.875000,63.000000,1.000000
440432.19999268,4464159.34999268,5.13000011,0,219,35,3.000000,10.000000,373181.968750,63.000000,1.000000
440431.45998718,4464162.99998657,6.13999987,8,255,0,3.000000,10.000000,373182.093750,63.000000,1.000000
440430.10999634,4464159.22000305,5.30999994,0,227,27,3.000000,26.000000,373182.375000,63.000000,1.000000
440432.04999878,4464160.09999268,6.05000019,4,255,0,3.000000,24.000000,373182.468750,63.000000,1.000000
440433.28998901,4464159.99000732,5.69000006,0,243,11,3.000000,22.000000,373182.687500,63.000000,1.000000
440432.82999756,4464158.95999329,5.07000017,0,217,37,3.000000,22.000000,373182.781250,63.000000,1.000000
440429.41999390,4464159.49000732,5.28000021,0,226,28,3.000000,8.000000,373182.875000,63.000000,1.000000
440432.65999939,4464159.36000244,5.36999989,0,230,24,3.000000,4.000000,373183.281250,53.000000,1.000000
440432.57999756,4464161.93998901,5.28000021,0,226,28,3.000000,4.000000,373183.281250,53.000000,1.000000
440431.94999268,4464159.95999329,5.82000017,0,249,5,3.000000,20.000000,373183.593750,53.000000,1.000000
440431.70998718,4464158.17999451,5.51000023,0,236,18,3.000000,4.000000,373183.781250,53.000000,1.000000
440433.21999695,4464160.19000427,6.03000021,3,255,0,3.000000,18.000000,373183.875000,100.000000,1.000000
440430.06998779,4464159.14999573,5.28999996,0,226,28,3.000000,0.000000,373184.968750,63.000000,1.000000
440428.68999817,4464161.52998535,6.51000023,23,255,0,4.000000,25.000000,373223.500000,63.000000,1.000000
440431.36999084,4464157.97000305,4.75000000,0,203,51,4.000000,23.000000,373224.687500,63.000000,1.000000
440430.20998718,4464159.09999268,6.44000006,20,255,0,2.000000,13.000000,373096.250000,49.000000,1.000000
440429.91999390,4464159.97000305,6.42999983,20,255,0,2.000000,11.000000,373097.031250,63.000000,1.000000
440428.35000183,4464160.16000549,6.19999981,10,255,0,2.000000,9.000000,373097.343750,63.000000,1.000000
440430.52000000,4464161.44999878,6.57000017,26,255,0,2.000000,25.000000,373097.750000,63.000000,1.000000
440431.65999939,4464161.30999939,6.30999994,15,255,0,2.000000,25.000000,373098.031250,63.000000,1.000000
440427.85000183,4464160.31999390,6.40000010,19,255,0,2.000000,5.000000,373098.437500,63.000000,1.000000
440430.65999939,4464159.66000549,6.51999998,24,255,0,2.000000,21.000000,373099.031250,63.000000,1.000000
440430.77999451,4464159.55000488,6.63000011,29,255,0,2.000000,1.000000,373100.125000,63.000000,1.000000
440431.55999329,4464160.74000732,6.30000019,14,255,0,2.000000,30.000000,373100.843750,63.000000,1.000000
440428.67998840,4464159.69000427,6.26999998,13,255,0,2.000000,4.000000,373103.125000,53.000000,1.000000
440431.96999695,4464161.03999512,6.09999990,6,255,0,2.000000,20.000000,373103.843750,53.000000,1.000000
440430.81998779,4464161.03000061,6.44999981,21,255,0,2.000000,16.000000,373104.843750,63.000000,1.000000
440431.46999695,4464160.91000549,6.30000019,14,255,0,3.000000,15.000000,373176.875000,63.000000,1.000000
440430.97999146,4464160.44000427,5.94999981,0,255,0,3.000000,15.000000,373177.281250,63.000000,1.000000
440431.96999695,4464160.61000244,6.38999987,18,255,0,3.000000,13.000000,373177.593750,52.000000,1.000000
440430.92998840,4464159.30999939,6.26000023,13,255,0,3.000000,29.000000,373177.781250,53.000000,1.000000
440430.65999939,4464161.77998535,6.23999977,12,255,0,3.000000,29.000000,373177.781250,52.000000,1.000000
440431.29999878,4464161.89000122,6.53000021,24,255,0,3.000000,27.000000,373178.093750,63.000000,1.000000
440431.04999878,4464159.61000244,6.61999989,29,255,0,3.000000,11.000000,373178.187500,63.000000,1.000000
440430.63999512,4464160.81999390,6.61000013,28,255,0,3.000000,27.000000,373178.281250,63.000000,1.000000
440432.38999512,4464161.17000000,6.09999990,6,255,0,3.000000,25.000000,373178.468750,63.000000,1.000000
440431.45998718,4464159.55999939,6.57000017,26,255,0,3.000000,9.000000,373178.687500,63.000000,1.000000
440429.80999329,4464161.34999268,6.30000019,14,255,0,3.000000,25.000000,373178.875000,63.000000,1.000000
440431.97999146,4464160.81999390,6.36999989,17,255,0,3.000000,7.000000,373178.968750,63.000000,1.000000
440431.80999329,4464160.06999390,6.25000000,12,255,0,3.000000,23.000000,373179.093750,63.000000,1.000000
440431.13999512,4464161.08999817,6.17999983,9,255,0,3.000000,23.000000,373179.187500,63.000000,1.000000
440429.99000122,4464161.16000549,6.46000004,21,255,0,3.000000,23.000000,373179.375000,63.000000,1.000000
440431.67998840,4464158.69999878,5.94999981,0,255,0,3.000000,21.000000,373179.593750,63.000000,1.000000
440431.54999878,4464160.45999329,6.11000013,6,255,0,3.000000,5.000000,373179.593750,63.000000,1.000000
440430.93999817,4464160.22000305,5.96000004,0,255,0,3.000000,5.000000,373179.687500,63.000000,1.000000
440430.53998901,4464161.93000977,6.65999985,30,255,0,3.000000,5.000000,373179.781250,63.000000,1.000000
440429.68999817,4464159.69000427,6.19999981,10,255,0,3.000000,5.000000,373179.968750,63.000000,1.000000
440432.13000061,4464160.52000610,6.48999977,23,255,0,3.000000,19.000000,373179.968750,63.000000,1.000000
440430.93999817,4464159.67000000,6.57999992,26,255,0,3.000000,3.000000,373180.187500,63.000000,1.000000
440430.41999390,4464159.20999329,6.30999994,15,255,0,3.000000,3.000000,373180.281250,63.000000,1.000000
440432.06998779,4464160.53000061,6.50000000,23,255,0,3.000000,17.000000,373180.375000,63.000000,1.000000
440431.52999451,4464160.02000610,6.19999981,10,255,0,3.000000,17.000000,373180.468750,63.000000,1.000000
440432.65999939,4464160.36000244,6.26999998,13,255,0,3.000000,30.000000,373180.875000,63.000000,1.000000
440430.04999878,4464161.46000854,6.36999989,17,255,0,3.000000,17.000000,373180.875000,63.000000,1.000000
440431.38000061,4464158.69000427,6.17999983,9,255,0,3.000000,14.000000,373181.187500,63.000000,1.000000
440432.77000000,4464160.89999573,6.09999990,6,255,0,3.000000,28.000000,373181.375000,63.000000,1.000000
440432.66999390,4464161.65999023,6.42999983,20,255,0,3.000000,12.000000,373181.375000,63.000000,1.000000
440431.71999695,4464161.97999756,6.57999992,26,255,0,3.000000,28.000000,373181.593750,63.000000,1.000000
440429.82999756,4464160.39999573,6.59999990,27,255,0,3.000000,12.000000,373181.875000,63.000000,1.000000
440428.97999146,4464160.39000122,6.65000010,29,255,0,3.000000,28.000000,373182.093750,63.000000,1.000000
440430.88999512,4464159.67000000,6.57000017,26,255,0,3.000000,26.000000,373182.187500,63.000000,1.000000
440430.81998779,4464160.95999329,6.50000000,23,255,0,3.000000,10.000000,373182.187500,63.000000,1.000000
440432.13000061,4464158.89000122,5.80000019,0,248,6,3.000000,8.000000,373182.468750,63.000000,1.000000
440431.54999878,4464158.42999451,5.82999992,0,249,5,3.000000,24.000000,373182.593750,63.000000,1.000000
440431.29999878,4464160.69000427,6.42999983,20,255,0,3.000000,8.000000,373182.593750,63.000000,1.000000
440430.74999573,4464158.05000488,5.84000015,0,250,4,3.000000,8.000000,373182.687500,63.000000,1.000000
440433.13000061,4464160.94999878,6.36999989,17,255,0,3.000000,22.000000,373182.687500,63.000000,1.000000
440429.88000061,4464160.16000549,6.57999992,26,255,0,3.000000,24.000000,373182.781250,63.000000,1.000000
440431.71999695,4464161.28000061,6.11000013,6,255,0,3.000000,22.000000,373182.875000,63.000000,1.000000
440431.46999695,4464159.47999756,6.50000000,23,255,0,3.000000,6.000000,373182.968750,63.000000,1.000000
440429.74999573,4464160.78999512,6.46999979,22,255,0,3.000000,22.000000,373183.281250,63.000000,1.000000
440432.17998840,4464160.30999939,6.51999998,24,255,0,3.000000,20.000000,373183.375000,54.000000,1.000000
440432.11999084,4464161.30000488,6.50000000,23,255,0,3.000000,20.000000,373183.375000,54.000000,1.000000
440432.10999634,4464160.14000122,6.46000004,21,255,0,3.000000,20.000000,373183.468750,54.000000,1.000000
440431.99999573,4464161.13000671,6.61999989,29,255,0,3.000000,20.000000,373183.468750,54.000000,1.000000
440431.52000000,4464158.64999573,6.05999994,4,255,0,3.000000,4.000000,373183.781250,54.000000,1.000000
440433.10999634,4464160.67000000,6.26000023,13,255,0,3.000000,18.000000,373183.875000,100.000000,1.000000
440431.06998779,4464159.27000610,6.26000023,13,255,0,3.000000,18.000000,373184.187500,100.000000,1.000000
440432.93999817,4464160.99000732,6.28999996,14,255,0,3.000000,16.000000,373184.375000,63.000000,1.000000
440431.93999817,4464158.81999390,5.80000019,0,248,6,3.000000,16.000000,373184.593750,63.000000,1.000000
440428.16999390,4464161.49998657,6.55000019,26,255,0,4.000000,29.000000,373222.312500,60.000000,1.000000
440430.15999939,4464160.64000122,6.65999985,30,255,0,4.000000,13.000000,373222.593750,59.000000,1.000000
440431.08999207,4464160.64999573,6.32000017,15,255,0,4.000000,27.000000,373223.406250,63.000000,1.000000
440431.15999939,4464160.59999268,6.23999977,12,255,0,4.000000,14.000000,373227.000000,63.000000,1.000000
440433.14998962,4464160.25000183,4.51999998,0,193,61,4.000000,8.000000,373229.312500,63.000000,1.000000
440429.30999329,4464162.59001343,5.19000006,0,222,32,2.000000,15.000000,373095.437500,63.000000,1.000000
440428.97999146,4464162.77000610,5.26000023,0,225,29,2.000000,11.000000,373096.625000,63.000000,1.000000
440427.49999573,4464161.55000488,5.26000023,0,225,29,2.000000,5.000000,373098.343750,63.000000,1.000000
440433.43999817,4464160.56999390,4.63999987,0,198,56,3.000000,3.000000,373179.687500,63.000000,1.000000
440427.81998779,4464161.46998779,5.15999985,0,221,33,2.000000,13.000000,373095.625000,49.000000,1.000000
440427.45998718,4464161.42000000,5.28000021,0,226,28,2.000000,27.000000,373096.218750,63.000000,1.000000
440427.24999573,4464161.36000244,5.28000021,0,226,28,2.000000,7.000000,373097.625000,63.000000,1.000000
440432.39998962,4464160.78000061,4.46000004,0,191,63,2.000000,25.000000,373098.125000,63.000000,1.000000
440430.03998901,4464162.55000488,5.05000019,0,216,38,2.000000,7.000000,373098.250000,63.000000,1.000000
