//X,Y,Z,R,G,B,Point Source ID,User Data,Time,Intensity,Classification
440397.39999725,4463994.72999756,7.98999977,87,255,0,6.000000,31.000000,373346.000000,1.000000,1.000000
440396.02999451,4463994.58000366,6.82999992,38,255,0,6.000000,13.000000,373346.000000,1.000000,1.000000
440397.33999207,4463994.48999969,8.30000019,100,255,0,6.000000,31.000000,373346.000000,1.000000,1.000000
440395.93999817,4463994.37999908,7.34000015,59,255,0,6.000000,13.000000,373346.000000,1.000000,1.000000
440397.33999207,4463994.30999939,8.22000027,97,255,0,6.000000,15.000000,373346.000000,1.000000,1.000000
440395.96999695,4463994.22999756,7.09999990,49,255,0,6.000000,29.000000,373346.000000,1.000000,1.000000
440397.33999207,4463994.19999878,8.23999977,98,255,0,6.000000,31.000000,373346.000000,1.000000,1.000000
440395.97999146,4463994.04000275,7.00000000,44,255,0,6.000000,13.000000,373346.000000,1.000000,1.000000
440397.33999207,4463993.90000336,7.32000017,59,255,0,6.000000,31.000000,373346.000000,1.000000,1.000000
440397.40999176,4463993.55999939,6.90000010,41,255,0,6.000000,31.000000,373346.000000,1.000000,1.000000
440397.31999542,4463993.44999878,7.34000015,59,255,0,6.000000,15.000000,373346.000000,1.000000,1.000000
440397.37999298,4463993.12999908,7.07000017,47,255,0,6.000000,15.000000,373346.000000,1.000000,1.000000
440398.23999359,4463997.08000366,8.22000027,97,255,0,6.000000,15.000000,373346.093750,1.000000,1.000000
440398.20999481,4463996.80999939,8.18000031,95,255,0,6.000000,15.000000,373346.093750,0.000000,1.000000
440398.16999390,4463996.54999725,8.30000019,100,255,0,6.000000,15.000000,373346.093750,1.000000,1.000000
440398.16999390,4463996.43000214,8.27000046,99,255,0,6.000000,31.000000,373346.093750,0.000000,1.000000
440395.34999420,4463996.11000244,6.84000015,38,255,0,6.000000,11.000000,373346.093750,1.000000,1.000000
440396.79999115,4463995.90000336,7.40999985,62,255,0,6.000000,29.000000,373346.093750,1.000000,1.000000
440398.05999329,4463995.92000000,8.71000004,118,255,0,6.000000,31.000000,373346.093750,1.000000,1.000000
440396.76999237,4463995.73999969,7.40000010,62,255,0,6.000000,13.000000,373346.093750,1.000000,1.000000
440396.76999237,4463995.62999908,7.42000008,62,255,0,6.000000,29.000000,373346.093750,1.000000,1.000000
440398.03999664,4463995.65000336,8.72000027,118,255,0,6.000000,31.000000,373346.093750,1.000000,1.000000
440396.71999695,4463995.37999908,7.67000008,74,255,0,6.000000,29.000000,373346.093750,2.000000,1.000000
440396.69999268,4463994.93999664,6.88999987,40,255,0,6.000000,13.000000,373346.093750,0.000000,1.000000
440397.97999146,4463994.96000092,8.60000038,113,255,0,6.000000,15.000000,373346.093750,1.000000,1.000000
440396.68999817,4463994.83000366,6.92999983,41,255,0,6.000000,29.000000,373346.093750,1.000000,1.000000
440396.66999390,4463994.55999939,6.96999979,44,255,0,6.000000,29.000000,373346.093750,1.000000,1.000000
440396.62999298,4463994.40999786,7.13999987,50,255,0,6.000000,13.000000,373346.093750,1.000000,1.000000
440396.62999298,4463994.29999725,7.15000010,51,255,0,6.000000,29.000000,373346.093750,1.000000,1.000000
440396.60999634,4463994.14000122,7.23999977,55,255,0,6.000000,13.000000,373346.093750,1.000000,1.000000
440396.59999420,4463994.03000061,7.23999977,55,255,0,6.000000,29.000000,373346.093750,1.000000,1.000000
440397.85999634,4463993.64000122,8.71000004,118,255,0,6.000000,15.000000,373346.093750,1.000000,1.000000
440397.97999146,4463993.22999756,8.02999973,88,255,0,6.000000,15.000000,373346.093750,0.000000,1.000000
440397.97999146,4463993.11999695,8.01000023,88,255,0,6.000000,31.000000,373346.093750,1.000000,1.000000
440397.94999268,4463992.97999756,7.42000008,62,255,0,6.000000,15.000000,373346.093750,1.000000,1.000000
440397.97999146,4463992.83000366,7.21000004,53,255,0,6.000000,31.000000,373346.093750,0.000000,1.000000
440398.93999817,4463997.32000153,8.23999977,98,255,0,6.000000,31.000000,373346.187500,1.000000,1.000000
440398.86999084,4463996.79000275,8.40999985,105,255,0,6.000000,31.000000,373346.187500,0.000000,1.000000
440398.78999664,4463996.65000336,8.75000000,120,255,0,6.000000,15.000000,373346.187500,1.000000,1.000000
440397.40999176,4463996.61999695,8.06000042,90,255,0,6.000000,29.000000,373346.187500,1.000000,1.000000
440398.77999451,4463996.54000275,8.56000042,112,255,0,6.000000,31.000000,373346.187500,0.000000,1.000000
440397.39999725,4463996.46000092,8.10000038,92,255,0,6.000000,13.000000,373346.187500,1.000000,1.000000
440398.75999786,4463996.37999908,8.60999966,114,255,0,6.000000,15.000000,373346.187500,0.000000,1.000000
440397.42999603,4463996.32000153,7.88000011,83,255,0,6.000000,29.000000,373346.187500,1.000000,1.000000
440398.72999146,4463996.29000275,8.75000000,120,255,0,6.000000,31.000000,373346.187500,0.000000,1.000000
440397.44999268,4463996.11999695,7.63999987,72,255,0,6.000000,13.000000,373346.187500,1.000000,1.000000
440398.69999268,4463996.14000122,8.86999989,125,255,0,6.000000,15.000000,373346.187500,1.000000,1.000000
440396.03999664,4463996.05999939,6.96999979,44,255,0,6.000000,27.000000,373346.187500,1.000000,1.000000
440397.43999817,4463996.00999634,7.65999985,73,255,0,6.000000,29.000000,373346.187500,1.000000,1.000000
440396.01999237,4463995.90000336,6.96999979,44,255,0,6.000000,11.000000,373346.187500,1.000000,1.000000
440397.31999542,4463995.92000000,8.31000042,101,255,0,6.000000,13.000000,373346.187500,1.000000,1.000000
440397.29999115,4463995.82000153,8.36999989,103,255,0,6.000000,29.000000,373346.187500,1.000000,1.000000
440395.95999481,4463995.67000000,7.40999985,62,255,0,6.000000,11.000000,373346.187500,1.000000,1.000000
440395.94999268,4463995.55999939,7.44000006,64,255,0,6.000000,27.000000,373346.187500,1.000000,1.000000
440397.31999542,4463995.53000061,8.17000008,95,255,0,6.000000,29.000000,373346.187500,2.000000,1.000000
440397.30999329,4463995.36000244,8.14999962,94,255,0,6.000000,13.000000,373346.187500,1.000000,1.000000
440397.28999664,4463995.25999634,8.27000046,99,255,0,6.000000,29.000000,373346.187500,1.000000,1.000000
440395.90999176,4463995.11999695,7.51999998,67,255,0,6.000000,11.000000,373346.187500,1.000000,1.000000
440397.23999359,4463995.11999695,8.48999977,109,255,0,6.000000,13.000000,373346.187500,2.000000,1.000000
440397.23999359,4463995.00000183,8.47000027,108,255,0,6.000000,29.000000,373346.187500,2.000000,1.000000
440397.23999359,4463994.83999817,8.11999989,93,255,0,6.000000,13.000000,373346.187500,2.000000,1.000000
440395.89999725,4463994.72000305,6.69999981,32,255,0,6.000000,27.000000,373346.187500,1.000000,1.000000
440397.24999573,4463994.71000092,8.02000046,88,255,0,6.000000,29.000000,373346.187500,2.000000,1.000000
440398.56999542,4463994.53000061,8.82999992,123,255,0,6.000000,15.000000,373346.187500,0.000000,1.000000
440395.84999420,4463994.47000305,6.94999981,42,255,0,6.000000,27.000000,373346.187500,1.000000,1.000000
440397.19999268,4463994.46000092,8.27000046,99,255,0,6.000000,29.000000,373346.187500,1.000000,1.000000
440395.82999756,4463994.33999817,7.15000010,51,255,0,6.000000,11.000000,373346.187500,1.000000,1.000000
440397.20999481,4463994.29000275,8.18999958,96,255,0,6.000000,13.000000,373346.187500,1.000000,1.000000
440397.20999481,4463994.18000214,8.14000034,94,255,0,6.000000,29.000000,373346.187500,1.000000,1.000000
440395.81999542,4463994.03000061,7.05000019,47,255,0,6.000000,11.000000,373346.187500,1.000000,1.000000
440397.20999481,4463993.98999969,7.25000000,56,255,0,6.000000,13.000000,373346.187500,1.000000,1.000000
440397.26999237,4463993.82000153,6.86000013,38,255,0,6.000000,29.000000,373346.187500,1.000000,1.000000
440397.25999786,4463993.65000336,6.84999990,38,255,0,6.000000,13.000000,373346.187500,2.000000,1.000000
440398.47999146,4463993.47000305,8.80000019,122,255,0,6.000000,15.000000,373346.187500,1.000000,1.000000
440397.13999512,4463993.35000031,7.51000023,67,255,0,6.000000,29.000000,373346.187500,1.000000,1.000000
440398.46999695,4463993.35000031,8.80000019,122,255,0,6.000000,31.000000,373346.187500,1.000000,1.000000
440398.56999542,4463993.10000031,8.32999992,102,255,0,6.000000,15.000000,373346.187500,1.000000,1.000000
440398.58999207,4463992.97000305,7.46000004,65,255,0,6.000000,31.000000,373346.187500,1.000000,1.000000
440398.70999481,4463992.55999939,6.78999996,35,255,0,6.000000,31.000000,373346.187500,0.000000,1.000000
440398.69999268,4463992.25999634,6.78000021,35,255,0,6.000000,31.000000,373346.187500,0.000000,1.000000
440397.96999695,4463997.04999725,7.73000002,76,255,0,6.000000,13.000000,373346.281250,1.000000,1.000000
440399.30999329,4463996.87999908,8.43000031,106,255,0,6.000000,31.000000,373346.281250,1.000000,1.000000
440397.87999298,4463996.80999939,8.00000000,88,255,0,6.000000,13.000000,373346.281250,1.000000,1.000000
440399.30999329,4463996.69999878,8.36999989,103,255,0,6.000000,15.000000,373346.281250,1.000000,1.000000
440397.87999298,4463996.69999878,7.96999979,86,255,0,6.000000,29.000000,373346.281250,1.000000,1.000000
440399.29999115,4463996.58999817,8.36999989,103,255,0,6.000000,31.000000,373346.281250,1.000000,1.000000
440399.46999695,4463996.32000153,7.42999983,63,255,0,6.000000,15.000000,373346.281250,0.000000,1.000000
440399.38999512,4463996.25999634,7.86999989,82,255,0,6.000000,31.000000,373346.281250,1.000000,1.000000
440397.85999634,4463996.25000183,8.02000046,88,255,0,6.000000,13.000000,373346.281250,1.000000,1.000000
440396.48999359,4463996.15999786,7.01000023,45,255,0,6.000000,27.000000,373346.281250,1.000000,1.000000
440397.92999603,4463996.08000366,7.48999977,65,255,0,6.000000,29.000000,373346.281250,1.000000,1.000000
440396.46999695,4463995.87999908,6.96999979,44,255,0,6.000000,27.000000,373346.281250,1.000000,1.000000
440397.75999786,4463995.90999786,8.40999985,105,255,0,6.000000,29.000000,373346.281250,1.000000,1.000000
440396.42999603,4463995.72000305,7.21000004,53,255,0,6.000000,11.000000,373346.281250,1.000000,1.000000
440397.72999146,4463995.75000183,8.51000023,109,255,0,6.000000,13.000000,373346.281250,2.000000,1.000000
440396.37999298,4463995.50000183,7.57000017,69,255,0,6.000000,11.000000,373346.281250,1.000000,1.000000
440397.67999603,4463994.93000214,8.17000008,95,255,0,6.000000,13.000000,373346.281250,1.000000,1.000000
440397.65999176,4463994.82000153,8.25000000,98,255,0,6.000000,29.000000,373346.281250,2.000000,1.000000
440397.72999146,4463994.47999756,7.76999998,78,255,0,6.000000,29.000000,373346.281250,1.000000,1.000000
440397.62999298,4463994.39000122,8.35999966,103,255,0,6.000000,13.000000,373346.281250,1.000000,1.000000
440397.60999634,4463993.72000305,7.48999977,65,255,0,6.000000,29.000000,373346.281250,1.000000,1.000000
440397.62999298,4463993.50999634,7.28999996,57,255,0,6.000000,13.000000,373346.281250,1.000000,1.000000
440397.63999512,4463993.39000122,7.23000002,55,255,0,6.000000,29.000000,373346.281250,1.000000,1.000000
440397.62999298,4463993.08999817,7.17000008,52,255,0,6.000000,29.000000,373346.281250,1.000000,1.000000
440399.08999207,4463992.80999939,7.55000019,68,255,0,6.000000,15.000000,373346.281250,0.000000,1.000000
440399.05999329,4463992.72000305,7.67999983,74,255,0,6.000000,31.000000,373346.281250,0.000000,1.000000
440399.05999329,4463992.57000153,7.71999979,76,255,0,6.000000,15.000000,373346.281250,0.000000,1.000000
440399.13999512,4463992.05999939,7.19000006,53,255,0,6.000000,31.000000,373346.281250,0.000000,1.000000
440399.95999481,4463997.28000061,8.00000000,88,255,0,6.000000,15.000000,373346.406250,1.000000,1.000000
440399.81999542,4463997.22000305,8.65999985,116,255,0,6.000000,31.000000,373346.406250,1.000000,1.000000
440399.79999115,4463997.07000153,8.72000027,118,255,0,6.000000,15.000000,373346.406250,1.000000,1.000000
440399.78999664,4463996.96000092,8.63000011,115,255,0,6.000000,31.000000,373346.406250,1.000000,1.000000
440399.78999664,4463996.79000275,8.53999996,111,255,0,6.000000,15.000000,373346.406250,1.000000,1.000000
440399.77999451,4463996.68000214,8.53999996,111,255,0,6.000000,31.000000,373346.406250,1.000000,1.000000
440398.28999664,4463996.65999786,8.52000046,110,255,0,6.000000,13.000000,373346.406250,1.000000,1.000000
440399.79999115,4463996.50000183,8.39000034,104,255,0,6.000000,15.000000,373346.406250,1.000000,1.000000
440398.25999786,4463996.57000153,8.68000031,117,255,0,6.000000,29.000000,373346.406250,1.000000,1.000000
440395.52999451,4463996.48999969,6.69000006,32,255,0,6.000000,9.000000,373346.406250,1.000000,1.000000
440398.26999237,4463996.39000122,8.61999989,114,255,0,6.000000,13.000000,373346.406250,1.000000,1.000000
440399.79999115,4463996.10000031,8.34000015,102,255,0,6.000000,31.000000,373346.406250,1.000000,1.000000
440395.50999786,4463996.22000305,6.82999992,38,255,0,6.000000,9.000000,373346.406250,1.000000,1.000000
440399.77999451,4463995.94999878,8.18000031,95,255,0,6.000000,15.000000,373346.406250,1.000000,1.000000
440396.92999603,4463996.01999847,7.65999985,73,255,0,6.000000,27.000000,373346.406250,1.000000,1.000000
440396.91999390,4463995.86000244,7.59000015,70,255,0,6.000000,11.000000,373346.406250,1.000000,1.000000
440396.90999176,4463995.75000183,7.61999989,71,255,0,6.000000,27.000000,373346.406250,1.000000,1.000000
440398.21999695,4463995.73999969,8.68999958,117,255,0,6.000000,29.000000,373346.406250,2.000000,1.000000
440396.88999512,4463995.58000366,7.65000010,73,255,0,6.000000,11.000000,373346.406250,1.000000,1.000000
440399.69999268,4463995.40999786,8.44999981,107,255,0,6.000000,15.000000,373346.406250,0.000000,1.000000
440396.86999084,4463995.48999969,7.80999994,80,255,0,6.000000,27.000000,373346.406250,1.000000,1.000000
440399.65999176,4463995.33000366,8.60999966,114,255,0,6.000000,31.000000,373346.406250,1.000000,1.000000
440396.85999634,4463995.32000153,7.80999994,80,255,0,6.000000,11.000000,373346.406250,1.000000,1.000000
440396.85999634,4463995.18999664,7.71000004,75,255,0,6.000000,27.000000,373346.406250,0.000000,1.000000
440399.61999084,4463995.07000153,8.80000019,122,255,0,6.000000,31.000000,373346.406250,1.000000,1.000000
440398.08999207,4463994.98999969,8.89000034,126,255,0,6.000000,29.000000,373346.406250,1.000000,1.000000
440396.82999756,4463994.75000183,7.44000006,64,255,0,6.000000,11.000000,373346.406250,1.000000,1.000000
440396.80999329,4463994.65000336,7.53999996,68,255,0,6.000000,27.000000,373346.406250,1.000000,1.000000
440396.79999115,4463994.48999969,7.57000017,69,255,0,6.000000,11.000000,373346.406250,1.000000,1.000000
440396.83999207,4463994.00000183,7.03000021,46,255,0,6.000000,27.000000,373346.406250,1.000000,1.000000
440398.01999237,4463993.61999695,8.71000004,118,255,0,6.000000,29.000000,373346.406250,2.000000,1.000000
440398.00999786,4463993.47000305,8.77999973,121,255,0,6.000000,13.000000,373346.406250,1.000000,1.000000
440397.99999573,4463993.36999695,8.81000042,122,255,0,6.000000,29.000000,373346.406250,1.000000,1.000000
440397.99999573,4463993.18000214,8.76000023,120,255,0,6.000000,13.000000,373346.406250,0.000000,1.000000
440399.47999146,4463993.01999847,8.63000011,115,255,0,6.000000,15.000000,373346.406250,0.000000,1.000000
440398.08999207,4463992.93999664,7.34999990,59,255,0,6.000000,29.000000,373346.406250,0.000000,1.000000
440399.56999542,4463992.04999725,7.53999996,68,255,0,6.000000,15.000000,373346.406250,1.000000,1.000000
440400.44999268,4463997.15000336,8.10999966,92,255,0,6.000000,15.000000,373346.500000,1.000000,1.000000
440400.43999817,4463997.03000061,8.10999966,92,255,0,6.000000,31.000000,373346.500000,1.000000,1.000000
440398.90999176,4463997.01999847,8.39000034,104,255,0,6.000000,13.000000,373346.500000,1.000000,1.000000
440398.89999725,4463996.90999786,8.31999969,101,255,0,6.000000,29.000000,373346.500000,1.000000,1.000000
440400.36999084,4463996.75999634,8.22999954,97,255,0,6.000000,31.000000,373346.500000,1.000000,1.000000
440398.86999084,4463996.75999634,8.43999958,106,255,0,6.000000,13.000000,373346.500000,1.000000,1.000000
440400.33999207,4463996.61999695,8.34000015,102,255,0,6.000000,15.000000,373346.500000,1.000000,1.000000
440398.80999329,4463996.65999786,8.76000023,120,255,0,6.000000,29.000000,373346.500000,1.000000,1.000000
440400.32999756,4463996.50000183,8.35000038,103,255,0,6.000000,31.000000,373346.500000,1.000000,1.000000
440398.78999664,4463996.51999847,8.78999996,121,255,0,6.000000,13.000000,373346.500000,1.000000,1.000000
440400.32999756,4463996.35000031,8.32999992,102,255,0,6.000000,15.000000,373346.500000,1.000000,1.000000
440397.41999390,4463996.47999756,8.10999966,92,255,0,6.000000,27.000000,373346.500000,1.000000,1.000000
440398.78999664,4463996.40000336,8.76000023,120,255,0,6.000000,29.000000,373346.500000,1.000000,1.000000
440400.33999207,4463996.22000305,8.25000000,98,255,0,6.000000,31.000000,373346.500000,0.000000,1.000000
440397.44999268,4463996.28000061,7.82999992,80,255,0,6.000000,11.000000,373346.500000,1.000000,1.000000
440396.02999451,4463996.22999756,7.26999998,56,255,0,6.000000,25.000000,373346.500000,1.000000,1.000000
440397.45999481,4463996.14000122,7.65999985,73,255,0,6.000000,27.000000,373346.500000,1.000000,1.000000
440396.03999664,4463996.04999725,7.00000000,44,255,0,6.000000,9.000000,373346.500000,1.000000,1.000000
440397.44999268,4463995.98999969,7.59000015,70,255,0,6.000000,11.000000,373346.500000,1.000000,1.000000
440400.27999451,4463995.80999939,8.43000031,106,255,0,6.000000,15.000000,373346.500000,1.000000,1.000000
440400.22999146,4463995.69999878,8.64000034,115,255,0,6.000000,31.000000,373346.500000,0.000000,1.000000
440397.32999756,4463995.79000275,8.39000034,104,255,0,6.000000,11.000000,373346.500000,1.000000,1.000000
440400.19999268,4463995.54999725,8.75000000,120,255,0,6.000000,15.000000,373346.500000,0.000000,1.000000
440397.33999207,4463995.50000183,8.15999985,94,255,0,6.000000,11.000000,373346.500000,1.000000,1.000000
440397.33999207,4463995.36999695,8.14000034,94,255,0,6.000000,27.000000,373346.500000,1.000000,1.000000
440397.30999329,4463995.22000305,8.27000046,99,255,0,6.000000,11.000000,373346.500000,1.000000,1.000000
440395.92999603,4463995.12999908,7.51000023,67,255,0,6.000000,25.000000,373346.500000,1.000000,1.000000
440397.27999451,4463995.12999908,8.50000000,109,255,0,6.000000,27.000000,373346.500000,1.000000,1.000000
440397.26999237,4463994.97000305,8.07999992,91,255,0,6.000000,11.000000,373346.500000,2.000000,1.000000
440397.25999786,4463994.85000031,8.17000008,95,255,0,6.000000,27.000000,373346.500000,1.000000,1.000000
440397.25999786,4463994.68999664,8.05000019,90,255,0,6.000000,11.000000,373346.500000,1.000000,1.000000
440395.88999512,4463994.58000366,6.76000023,35,255,0,6.000000,25.000000,373346.500000,1.000000,1.000000
440397.23999359,4463994.58999817,8.17000008,95,255,0,6.000000,27.000000,373346.500000,1.000000,1.000000
440397.23999359,4463994.43000214,8.22000027,97,255,0,6.000000,11.000000,373346.500000,1.000000,1.000000
440397.23999359,4463994.29999725,8.15999985,94,255,0,6.000000,27.000000,373346.500000,1.000000,1.000000
440395.83999207,4463994.07000153,7.11999989,50,255,0,6.000000,25.000000,373346.500000,1.000000,1.000000
440397.19999268,4463993.44999878,7.26000023,56,255,0,6.000000,27.000000,373346.500000,1.000000,1.000000
440397.16999390,4463993.32000153,7.51000023,67,255,0,6.000000,11.000000,373346.500000,1.000000,1.000000
440398.50999786,4463993.30999939,8.81999969,123,255,0,6.000000,13.000000,373346.500000,1.000000,1.000000
440398.57999756,4463993.10000031,8.31999969,101,255,0,6.000000,29.000000,373346.500000,1.000000,1.000000
440398.57999756,4463992.93000214,7.48000002,65,255,0,6.000000,13.000000,373346.500000,1.000000,1.000000
440399.96999695,4463992.58000366,7.84999990,81,255,0,6.000000,15.000000,373346.500000,1.000000,1.000000
440400.00999786,4463992.43999664,7.67999983,74,255,0,6.000000,31.000000,373346.500000,1.000000,1.000000
440399.99999573,4463992.15999786,7.63999987,72,255,0,6.000000,31.000000,373346.500000,1.000000,1.000000
440399.96999695,4463992.01999847,7.78000021,78,255,0,6.000000,15.000000,373346.500000,1.000000,1.000000
440399.32999756,4463997.19999878,8.60999966,114,255,0,6.000000,13.000000,373346.593750,2.000000,1.000000
440399.28999664,4463997.10000031,8.81999969,123,255,0,6.000000,29.000000,373346.593750,1.000000,1.000000
440400.86999084,4463996.90999786,8.11999989,93,255,0,6.000000,31.000000,373346.593750,1.000000,1.000000
440397.96999695,4463996.97999756,7.57000017,69,255,0,6.000000,11.000000,373346.593750,1.000000,1.000000
440400.85999634,4463996.75000183,8.13000011,93,255,0,6.000000,15.000000,373346.593750,1.000000,1.000000
440397.91999390,4463996.90000336,7.90999985,84,255,0,6.000000,27.000000,373346.593750,1.000000,1.000000
440399.32999756,4463996.80999939,8.38000011,104,255,0,6.000000,29.000000,373346.593750,2.000000,1.000000
440397.89999725,4463996.73999969,8.01000023,88,255,0,6.000000,11.000000,373346.593750,1.000000,1.000000
440400.82999756,4463996.46000092,8.14000034,94,255,0,6.000000,15.000000,373346.593750,0.000000,1.000000
440397.88999512,4463996.61999695,7.98999977,87,255,0,6.000000,27.000000,373346.593750,1.000000,1.000000
440397.86999084,4463996.47000305,8.13000011,93,255,0,6.000000,11.000000,373346.593750,1.000000,1.000000
440399.37999298,4463996.29999725,7.90000010,83,255,0,6.000000,13.000000,373346.593750,1.000000,1.000000
440397.87999298,4463996.33999817,8.01000023,88,255,0,6.000000,27.000000,373346.593750,1.000000,1.000000
440399.37999298,4463996.18000214,7.86999989,82,255,0,6.000000,29.000000,373346.593750,2.000000,1.000000
440396.48999359,4463996.08999817,7.05999994,47,255,0,6.000000,25.000000,373346.593750,1.000000,1.000000
440395.01999237,4463996.04999725,6.69000006,32,255,0,6.000000,7.000000,373346.593750,0.000000,1.000000
440396.47999146,4463995.90999786,6.94000006,42,255,0,6.000000,9.000000,373346.593750,1.000000,1.000000
440396.44999268,4463995.82000153,7.15000010,51,255,0,6.000000,25.000000,373346.593750,0.000000,1.000000
440397.77999451,4463995.83999817,8.44999981,107,255,0,6.000000,27.000000,373346.593750,1.000000,1.000000
440396.40999176,4463995.58999817,7.55000019,68,255,0,6.000000,25.000000,373346.593750,1.000000,1.000000
440396.39999725,4463995.42000000,7.53999996,68,255,0,6.000000,9.000000,373346.593750,1.000000,1.000000
440396.38999512,4463995.30999939,7.53000021,68,255,0,6.000000,25.000000,373346.593750,1.000000,1.000000
440396.39999725,4463995.10000031,7.25000000,56,255,0,6.000000,9.000000,373346.593750,1.000000,1.000000
440397.70999481,4463995.03000061,8.61999989,114,255,0,6.000000,27.000000,373346.593750,1.000000,1.000000
440397.67999603,4463994.87999908,8.38000011,104,255,0,6.000000,11.000000,373346.593750,1.000000,1.000000
440397.68999817,4463994.75000183,8.23999977,98,255,0,6.000000,27.000000,373346.593750,1.000000,1.000000
440396.31999542,4463994.61000244,7.03000021,46,255,0,6.000000,9.000000,373346.593750,1.000000,1.000000
440397.69999268,4463994.57000153,8.14000034,94,255,0,6.000000,11.000000,373346.593750,1.000000,1.000000
440396.30999329,4463994.48999969,7.01999998,46,255,0,6.000000,25.000000,373346.593750,1.000000,1.000000
440397.71999695,4463994.43999664,7.96999979,86,255,0,6.000000,27.000000,373346.593750,1.000000,1.000000
440396.29999115,4463994.35000031,7.21000004,53,255,0,6.000000,9.000000,373346.593750,1.000000,1.000000
440396.29999115,4463994.22000305,7.11000013,50,255,0,6.000000,25.000000,373346.593750,1.000000,1.000000
440396.26999237,4463994.10000031,7.32000017,59,255,0,6.000000,9.000000,373346.593750,1.000000,1.000000
440397.66999390,4463993.90000336,7.32000017,59,255,0,6.000000,27.000000,373346.593750,1.000000,1.000000
440397.62999298,4463993.78000061,7.53999996,68,255,0,6.000000,11.000000,373346.593750,1.000000,1.000000
440397.64999725,4463993.62999908,7.36999989,61,255,0,6.000000,27.000000,373346.593750,1.000000,1.000000
440397.64999725,4463993.42000000,7.23000002,55,255,0,6.000000,11.000000,373346.593750,1.000000,1.000000
440398.96999695,4463993.17000000,8.82999992,123,255,0,6.000000,13.000000,373346.593750,1.000000,1.000000
440397.63999512,4463993.04000275,7.17000008,52,255,0,6.000000,27.000000,373346.593750,1.000000,1.000000
440399.08999207,4463992.90000336,7.50000000,66,255,0,6.000000,29.000000,373346.593750,1.000000,1.000000
440399.06999542,4463992.75000183,7.61999989,71,255,0,6.000000,13.000000,373346.593750,1.000000,1.000000
440400.49999573,4463992.65999786,7.42000008,62,255,0,6.000000,15.000000,373346.593750,0.000000,1.000000
440399.02999451,4463992.68000214,7.80000019,79,255,0,6.000000,29.000000,373346.593750,1.000000,1.000000
440400.46999695,4463992.58000366,7.57000017,69,255,0,6.000000,31.000000,373346.593750,0.000000,1.000000
440399.02999451,4463992.51999847,7.86000013,82,255,0,6.000000,13.000000,373346.593750,1.000000,1.000000
440400.41999390,4463992.36000244,7.84999990,81,255,0,6.000000,31.000000,373346.593750,1.000000,1.000000
440400.40999176,4463992.18999664,7.84999990,81,255,0,6.000000,15.000000,373346.593750,1.000000,1.000000
440399.09999420,4463992.00000183,7.25000000,56,255,0,6.000000,29.000000,373346.593750,1.000000,1.000000
440399.90999176,4463997.44999878,7.94000006,85,255,0,6.000000,29.000000,373346.687500,0.000000,1.000000
440399.88999512,4463997.29000275,7.98999977,87,255,0,6.000000,13.000000,373346.687500,1.000000,1.000000
440399.79999115,4463997.22000305,8.51000023,109,255,0,6.000000,29.000000,373346.687500,1.000000,1.000000
440399.75999786,4463997.08000366,8.64000034,115,255,0,6.000000,13.000000,373346.687500,1.000000,1.000000
440399.73999359,4463996.96000092,8.60999966,114,255,0,6.000000,29.000000,373346.687500,1.000000,1.000000
440399.73999359,4463996.79999725,8.52999973,110,255,0,6.000000,13.000000,373346.687500,2.000000,1.000000
440398.29999115,4463996.80999939,8.38000011,104,255,0,6.000000,27.000000,373346.687500,1.000000,1.000000
440399.72999146,4463996.68999664,8.56000042,112,255,0,6.000000,29.000000,373346.687500,2.000000,1.000000
440398.26999237,4463996.65000336,8.48999977,109,255,0,6.000000,11.000000,373346.687500,1.000000,1.000000
440399.73999359,4463996.50999634,8.39999962,105,255,0,6.000000,13.000000,373346.687500,2.000000,1.000000
440399.75999786,4463996.39000122,8.32999992,102,255,0,6.000000,29.000000,373346.687500,1.000000,1.000000
440398.22999146,4463996.40000336,8.77999973,121,255,0,6.000000,11.000000,373346.687500,1.000000,1.000000
440399.73999359,4463996.10000031,8.31999969,101,255,0,6.000000,29.000000,373346.687500,2.000000,1.000000
440395.45999481,4463996.22000305,6.84000015,38,255,0,6.000000,7.000000,373346.687500,1.000000,1.000000
440396.89999725,4463996.11999695,7.57000017,69,255,0,6.000000,9.000000,373346.687500,0.000000,1.000000
440399.71999695,4463995.93999664,8.18999958,96,255,0,6.000000,13.000000,373346.687500,1.000000,1.000000
440396.88999512,4463996.01999847,7.67999983,74,255,0,6.000000,25.000000,373346.687500,1.000000,1.000000
440396.87999298,4463995.83000366,7.50000000,66,255,0,6.000000,9.000000,373346.687500,1.000000,1.000000
440396.86999084,4463995.72999756,7.61000013,71,255,0,6.000000,25.000000,373346.687500,1.000000,1.000000
440398.19999268,4463995.72000305,8.64999962,115,255,0,6.000000,27.000000,373346.687500,1.000000,1.000000
440396.84999420,4463995.57000153,7.69999981,75,255,0,6.000000,9.000000,373346.687500,1.000000,1.000000
440398.15999176,4463995.58999817,8.88000011,125,255,0,6.000000,11.000000,373346.687500,1.000000,1.000000
440399.62999298,4463995.42000000,8.59000015,113,255,0,6.000000,13.000000,373346.687500,1.000000,1.000000
440399.60999634,4463995.33000366,8.68999958,117,255,0,6.000000,29.000000,373346.687500,1.000000,1.000000
440396.81999542,4463995.32000153,7.80999994,80,255,0,6.000000,9.000000,373346.687500,1.000000,1.000000
440396.81999542,4463995.19999878,7.73999977,77,255,0,6.000000,25.000000,373346.687500,0.000000,1.000000
440399.56999542,4463994.89000122,8.52000046,110,255,0,6.000000,13.000000,373346.687500,1.000000,1.000000
440396.78999664,4463994.72999756,7.42999983,63,255,0,6.000000,9.000000,373346.687500,0.000000,1.000000
440396.76999237,4463994.62999908,6.90000010,41,255,0,6.000000,25.000000,373346.687500,0.000000,1.000000
440396.73999359,4463994.21000092,7.09999990,49,255,0,6.000000,9.000000,373346.687500,0.000000,1.000000
440398.00999786,4463993.61000244,8.72000027,118,255,0,6.000000,27.000000,373346.687500,1.000000,1.000000
440397.99999573,4463993.46000092,8.77000046,121,255,0,6.000000,11.000000,373346.687500,1.000000,1.000000
440397.99999573,4463993.33999817,8.72999954,119,255,0,6.000000,27.000000,373346.687500,1.000000,1.000000
440397.98999359,4463993.15000336,8.67000008,116,255,0,6.000000,11.000000,373346.687500,1.000000,1.000000
440399.39999725,4463993.04000275,8.86999989,125,255,0,6.000000,13.000000,373346.687500,1.000000,1.000000
440398.04999115,4463992.93000214,7.34999990,59,255,0,6.000000,27.000000,373346.687500,1.000000,1.000000
440399.54999115,4463992.25999634,7.21000004,53,255,0,6.000000,13.000000,373346.687500,1.000000,1.000000
440399.52999451,4463992.17000000,7.34000015,59,255,0,6.000000,29.000000,373346.687500,1.000000,1.000000
440400.84999420,4463992.22999756,7.61999989,71,255,0,6.000000,31.000000,373346.687500,1.000000,1.000000
440398.08999207,4463992.07000153,6.69999981,32,255,0,6.000000,11.000000,373346.687500,1.000000,1.000000
440399.50999786,4463992.00999634,7.38000011,61,255,0,6.000000,13.000000,373346.687500,1.000000,1.000000
440400.85999634,4463992.04000275,7.51999998,67,255,0,6.000000,15.000000,373346.687500,0.000000,1.000000
440400.39999725,4463997.40999786,8.06000042,90,255,0,6.000000,13.000000,373346.781250,1.000000,1.000000
440400.40999176,4463997.29000275,7.94999981,85,255,0,6.000000,29.000000,373346.781250,0.000000,1.000000
440398.88999512,4463997.17000000,8.22999954,97,255,0,6.000000,27.000000,373346.781250,1.000000,1.000000
440400.34999420,4463997.04000275,8.22999954,97,255,0,6.000000,29.000000,373346.781250,1.000000,1.000000
440398.86999084,4463997.00999634,8.28999996,100,255,0,6.000000,11.000000,373346.781250,1.000000,1.000000
440400.32999756,4463996.87999908,8.17000008,95,255,0,6.000000,13.000000,373346.781250,2.000000,1.000000
440398.84999420,4463996.90999786,8.32999992,102,255,0,6.000000,27.000000,373346.781250,2.000000,1.000000
440400.29999115,4463996.76999847,8.28999996,100,255,0,6.000000,29.000000,373346.781250,2.000000,1.000000
440400.27999451,4463996.61000244,8.35000038,103,255,0,6.000000,13.000000,373346.781250,2.000000,1.000000
440400.26999237,4463996.50000183,8.35999966,103,255,0,6.000000,29.000000,373346.781250,2.000000,1.000000
440397.39999725,4463996.57000153,8.02000046,88,255,0,6.000000,9.000000,373346.781250,0.000000,1.000000
440398.77999451,4463996.48999969,8.48999977,109,255,0,6.000000,11.000000,373346.781250,1.000000,1.000000
440400.25999786,4463996.33000366,8.30000019,100,255,0,6.000000,13.000000,373346.781250,1.000000,1.000000
440397.38999512,4463996.46000092,7.98000002,87,255,0,6.000000,25.000000,373346.781250,1.000000,1.000000
440400.28999664,4463996.19999878,8.18000031,95,255,0,6.000000,29.000000,373346.781250,2.000000,1.000000
440397.39999725,4463996.26999847,7.71999979,76,255,0,6.000000,9.000000,373346.781250,1.000000,1.000000
440397.40999176,4463996.15000336,7.65000010,73,255,0,6.000000,25.000000,373346.781250,1.000000,1.000000
440400.21999695,4463995.79999725,8.39999962,105,255,0,6.000000,13.000000,373346.781250,2.000000,1.000000
440397.32999756,4463995.96000092,8.35000038,103,255,0,6.000000,25.000000,373346.781250,1.000000,1.000000
440397.31999542,4463995.79000275,8.35999966,103,255,0,6.000000,9.000000,373346.781250,1.000000,1.000000
440397.30999329,4463995.67000000,8.27000046,99,255,0,6.000000,25.000000,373346.781250,1.000000,1.000000
440395.91999390,4463995.53000061,7.42999983,63,255,0,6.000000,7.000000,373346.781250,1.000000,1.000000
440397.30999329,4463995.48999969,8.18000031,95,255,0,6.000000,9.000000,373346.781250,1.000000,1.000000
440395.90999176,4463995.43000214,7.57000017,69,255,0,6.000000,23.000000,373346.781250,1.000000,1.000000
440397.29999115,4463995.37999908,8.18999958,96,255,0,6.000000,25.000000,373346.781250,1.000000,1.000000
440395.88999512,4463995.25999634,7.59000015,70,255,0,6.000000,7.000000,373346.781250,1.000000,1.000000
440397.27999451,4463995.22000305,8.35000038,103,255,0,6.000000,9.000000,373346.781250,1.000000,1.000000
440395.88999512,4463995.12999908,7.51000023,67,255,0,6.000000,23.000000,373346.781250,1.000000,1.000000
440397.25999786,4463995.12999908,8.52000046,110,255,0,6.000000,25.000000,373346.781250,1.000000,1.000000
440397.24999573,4463994.97000305,8.06000042,90,255,0,6.000000,9.000000,373346.781250,1.000000,1.000000
440397.23999359,4463994.85000031,8.10000038,92,255,0,6.000000,25.000000,373346.781250,1.000000,1.000000
440397.22999146,4463994.68000214,8.03999996,89,255,0,6.000000,9.000000,373346.781250,1.000000,1.000000
440395.83999207,4463994.58999817,6.82000017,37,255,0,6.000000,23.000000,373346.781250,1.000000,1.000000
440397.21999695,4463994.58000366,8.18000031,95,255,0,6.000000,25.000000,373346.781250,0.000000,1.000000
440395.81999542,4463994.43999664,6.98000002,44,255,0,6.000000,7.000000,373346.781250,1.000000,1.000000
440397.19999268,4463994.43000214,8.23999977,98,255,0,6.000000,9.000000,373346.781250,0.000000,1.000000
440398.60999634,4463994.33000366,8.53999996,111,255,0,6.000000,11.000000,373346.781250,1.000000,1.000000
440397.21999695,4463994.29000275,8.06999969,91,255,0,6.000000,25.000000,373346.781250,0.000000,1.000000
440397.22999146,4463994.08999817,7.86000013,82,255,0,6.000000,9.000000,373346.781250,1.000000,1.000000
440395.79999115,4463994.07000153,7.13999987,50,255,0,6.000000,23.000000,373346.781250,1.000000,1.000000
440397.22999146,4463993.93999664,6.84999990,38,255,0,6.000000,25.000000,373346.781250,1.000000,1.000000
440397.21999695,4463993.64000122,6.75000000,34,255,0,6.000000,25.000000,373346.781250,1.000000,1.000000
440397.12999298,4463993.30999939,7.53999996,68,255,0,6.000000,9.000000,373346.781250,0.000000,1.000000
440398.48999359,4463993.30999939,8.85000038,124,255,0,6.000000,11.000000,373346.781250,0.000000,1.000000
440398.53999664,4463992.92000000,7.44999981,64,255,0,6.000000,11.000000,373346.781250,0.000000,1.000000
440399.90999176,4463992.55999939,7.86000013,82,255,0,6.000000,13.000000,373346.781250,1.000000,1.000000
440399.92999603,4463992.15000336,7.67999983,74,255,0,6.000000,29.000000,373346.781250,1.000000,1.000000
440399.41999390,4463997.29999725,8.77999973,121,255,0,6.000000,27.000000,373346.906250,1.000000,1.000000
440398.08999207,4463997.18000214,7.55999994,69,255,0,6.000000,9.000000,373346.906250,0.000000,1.000000
440399.41999390,4463997.14000122,8.67000008,116,255,0,6.000000,11.000000,373346.906250,1.000000,1.000000
440398.05999329,4463997.08000366,7.78999996,79,255,0,6.000000,25.000000,373346.906250,1.000000,1.000000
440398.04999115,4463996.90999786,7.59000015,70,255,0,6.000000,9.000000,373346.906250,1.000000,1.000000
440399.40999176,4463996.85000031,8.47000027,108,255,0,6.000000,11.000000,373346.906250,1.000000,1.000000
440397.99999573,4463996.83999817,8.05000019,90,255,0,6.000000,25.000000,373346.906250,1.000000,1.000000
440399.39999725,4463996.73999969,8.52000046,110,255,0,6.000000,27.000000,373346.906250,1.000000,1.000000
440397.98999359,4463996.67000000,8.06999969,91,255,0,6.000000,9.000000,373346.906250,1.000000,1.000000
440397.96999695,4463996.57000153,8.19999981,96,255,0,6.000000,25.000000,373346.906250,1.000000,1.000000
440399.42999603,4463996.40999786,8.03999996,89,255,0,6.000000,27.000000,373346.906250,1.000000,1.000000
440397.96999695,4463996.40999786,8.13000011,93,255,0,6.000000,9.000000,373346.906250,1.000000,1.000000
440399.43999817,4463996.23999969,7.92000008,84,255,0,6.000000,11.000000,373346.906250,1.000000,1.000000
440397.91999390,4463996.04999725,8.47000027,108,255,0,6.000000,25.000000,373346.906250,1.000000,1.000000
440397.89999725,4463995.89000122,8.48999977,109,255,0,6.000000,9.000000,373346.906250,1.000000,1.000000
440396.52999451,4463995.76999847,7.25000000,56,255,0,6.000000,23.000000,373346.906250,1.000000,1.000000
440397.88999512,4463995.76999847,8.56000042,112,255,0,6.000000,25.000000,373346.906250,0.000000,1.000000
440396.48999359,4463995.54000275,7.67999983,74,255,0,6.000000,23.000000,373346.906250,1.000000,1.000000
440396.47999146,4463995.36999695,7.69000006,74,255,0,6.000000,7.000000,373346.906250,1.000000,1.000000
440396.47999146,4463995.22999756,7.44000006,64,255,0,6.000000,23.000000,373346.906250,1.000000,1.000000
440396.47999146,4463995.03000061,7.23999977,55,255,0,6.000000,7.000000,373346.906250,1.000000,1.000000
440396.43999817,4463994.80999939,6.80999994,36,255,0,6.000000,7.000000,373346.906250,1.000000,1.000000
440397.79999115,4463994.82000153,8.48999977,109,255,0,6.000000,9.000000,373346.906250,1.000000,1.000000
440396.41999390,4463994.72999756,7.03999996,47,255,0,6.000000,23.000000,373346.906250,1.000000,1.000000
440396.40999176,4463994.54999725,7.07000017,47,255,0,6.000000,7.000000,373346.906250,1.000000,1.000000
440396.39999725,4463994.43999664,7.09999990,49,255,0,6.000000,23.000000,373346.906250,1.000000,1.000000
440396.38999512,4463994.28000061,7.11000013,50,255,0,6.000000,7.000000,373346.906250,1.000000,1.000000
440396.38999512,4463994.17000000,7.13999987,50,255,0,6.000000,23.000000,373346.906250,1.000000,1.000000
440396.36999084,4463994.01999847,7.28999996,57,255,0,6.000000,7.000000,373346.906250,1.000000,1.000000
440397.68999817,4463993.96000092,8.07999992,91,255,0,6.000000,25.000000,373346.906250,0.000000,1.000000
440397.70999481,4463993.75999634,7.88000011,83,255,0,6.000000,9.000000,373346.906250,1.000000,1.000000
440397.73999359,4463993.55999939,7.38999987,62,255,0,6.000000,25.000000,373346.906250,1.000000,1.000000
440397.73999359,4463993.36999695,7.19999981,53,255,0,6.000000,9.000000,373346.906250,1.000000,1.000000
440397.72999146,4463993.25000183,7.21000004,53,255,0,6.000000,25.000000,373346.906250,1.000000,1.000000
440399.10999634,4463992.71000092,7.82000017,80,255,0,6.000000,11.000000,373346.906250,1.000000,1.000000
440399.09999420,4463992.61000244,7.84000015,81,255,0,6.000000,27.000000,373346.906250,1.000000,1.000000
440399.16999390,4463992.21000092,7.19000006,53,255,0,6.000000,27.000000,373346.906250,1.000000,1.000000
440400.07999756,4463997.37999908,8.18000031,95,255,0,6.000000,27.000000,373347.000000,1.000000,1.000000
440400.06999542,4463997.19999878,8.15999985,94,255,0,6.000000,11.000000,373347.000000,1.000000,1.000000
440398.61999084,4463997.22999756,8.06000042,90,255,0,6.000000,25.000000,373347.000000,1.000000,1.000000
440399.98999359,4463997.14000122,8.77000046,121,255,0,6.000000,27.000000,373347.000000,1.000000,1.000000
440398.56999542,4463997.10000031,8.42000008,106,255,0,6.000000,9.000000,373347.000000,1.000000,1.000000
440399.96999695,4463996.97999756,8.71000004,118,255,0,6.000000,11.000000,373347.000000,1.000000,1.000000
440398.56999542,4463996.97999756,8.19999981,96,255,0,6.000000,25.000000,373347.000000,1.000000,1.000000
440399.95999481,4463996.71000092,8.60000038,113,255,0,6.000000,11.000000,373347.000000,1.000000,1.000000
440398.50999786,4463996.73999969,8.68999958,117,255,0,6.000000,25.000000,373347.000000,1.000000,1.000000
440399.96999695,4463996.58000366,8.43000031,106,255,0,6.000000,27.000000,373347.000000,2.000000,1.000000
440398.49999573,4463996.57000153,8.61999989,114,255,0,6.000000,9.000000,373347.000000,1.000000,1.000000
440399.96999695,4463996.40000336,8.32999992,102,255,0,6.000000,11.000000,373347.000000,1.000000,1.000000
440395.69999268,4463996.60000031,6.78999996,35,255,0,6.000000,21.000000,373347.000000,1.000000,1.000000
440398.47999146,4463996.47999756,8.77999973,121,255,0,6.000000,25.000000,373347.000000,1.000000,1.000000
440398.45999481,4463996.30999939,8.78999996,121,255,0,6.000000,9.000000,373347.000000,1.000000,1.000000
440398.44999268,4463996.21000092,8.89999962,126,255,0,6.000000,25.000000,373347.000000,0.000000,1.000000
440399.95999481,4463995.98999969,8.18000031,95,255,0,6.000000,27.000000,373347.000000,0.000000,1.000000
440399.91999390,4463995.85000031,8.43000031,106,255,0,6.000000,11.000000,373347.000000,1.000000,1.000000
440397.09999420,4463995.92000000,7.55999994,69,255,0,6.000000,23.000000,373347.000000,1.000000,1.000000
440399.89999725,4463995.75000183,8.59000015,113,255,0,6.000000,27.000000,373347.000000,1.000000,1.000000
440397.07999756,4463995.75000183,7.61000013,71,255,0,6.000000,7.000000,373347.000000,0.000000,1.000000
440399.86999084,4463995.58999817,8.68000031,117,255,0,6.000000,11.000000,373347.000000,0.000000,1.000000
440397.05999329,4463995.50000183,7.78000021,78,255,0,6.000000,7.000000,373347.000000,0.000000,1.000000
440399.83999207,4463995.33999817,8.86999989,125,255,0,6.000000,11.000000,373347.000000,1.000000,1.000000
440397.01999237,4463995.26999847,8.22999954,97,255,0,6.000000,7.000000,373347.000000,0.000000,1.000000
440396.99999573,4463995.17000000,8.35000038,103,255,0,6.000000,23.000000,373347.000000,0.000000,1.000000
440396.97999146,4463994.90999786,8.07999992,91,255,0,6.000000,23.000000,373347.000000,0.000000,1.000000
440396.95999481,4463994.61000244,7.90000010,83,255,0,6.000000,23.000000,373347.000000,1.000000,1.000000
440396.95999481,4463994.37999908,7.57999992,70,255,0,6.000000,7.000000,373347.000000,0.000000,1.000000
440396.94999268,4463994.28000061,7.65000010,73,255,0,6.000000,23.000000,373347.000000,1.000000,1.000000
440398.25999786,4463993.80999939,8.89999962,126,255,0,6.000000,25.000000,373347.000000,0.000000,1.000000
440396.88999512,4463993.22999756,6.71999979,32,255,0,6.000000,7.000000,373347.000000,0.000000,1.000000
440396.87999298,4463993.15999786,6.94000006,42,255,0,6.000000,23.000000,373347.000000,1.000000,1.000000
440398.21999695,4463993.23999969,8.77000046,121,255,0,6.000000,25.000000,373347.000000,0.000000,1.000000
440399.64999725,4463992.44999878,7.86999989,82,255,0,6.000000,27.000000,373347.000000,1.000000,1.000000
440399.64999725,4463992.26999847,7.82000017,80,255,0,6.000000,11.000000,373347.000000,1.000000,1.000000
440400.65999176,4463997.36000244,8.22000027,97,255,0,6.000000,11.000000,373347.093750,1.000000,1.000000
440399.13999512,4463997.25999634,8.86999989,125,255,0,6.000000,9.000000,373347.093750,0.000000,1.000000
440400.63999512,4463997.07000153,8.18999958,96,255,0,6.000000,11.000000,373347.093750,1.000000,1.000000
440399.12999298,4463997.15000336,8.84000015,124,255,0,6.000000,25.000000,373347.093750,1.000000,1.000000
440399.12999298,4463996.97999756,8.65999985,116,255,0,6.000000,9.000000,373347.093750,1.000000,1.000000
440397.73999359,4463996.94999878,7.92000008,84,255,0,6.000000,23.000000,373347.093750,1.000000,1.000000
440399.12999298,4463996.85000031,8.43999958,106,255,0,6.000000,25.000000,373347.093750,1.000000,1.000000
440400.56999542,4463996.71000092,8.38000011,104,255,0,6.000000,27.000000,373347.093750,2.000000,1.000000
440397.71999695,4463996.78000061,7.94000006,85,255,0,6.000000,7.000000,373347.093750,1.000000,1.000000
440400.54999115,4463996.54000275,8.35999966,103,255,0,6.000000,11.000000,373347.093750,1.000000,1.000000
440397.69999268,4463996.68000214,8.13000011,93,255,0,6.000000,23.000000,373347.093750,1.000000,1.000000
440399.06999542,4463996.43999664,8.75000000,120,255,0,6.000000,9.000000,373347.093750,1.000000,1.000000
440400.50999786,4463996.29000275,8.56999969,112,255,0,6.000000,11.000000,373347.093750,1.000000,1.000000
440396.22999146,4463995.90000336,7.03999996,47,255,0,6.000000,21.000000,373347.093750,1.000000,1.000000
440396.20999481,4463995.67000000,7.59999990,71,255,0,6.000000,21.000000,373347.093750,1.000000,1.000000
440396.18999817,4463995.36999695,7.46000004,65,255,0,6.000000,21.000000,373347.093750,2.000000,1.000000
440396.15999176,4463995.08000366,7.55000019,68,255,0,6.000000,21.000000,373347.093750,0.000000,1.000000
440396.13999512,4463994.82000153,6.90999985,41,255,0,6.000000,21.000000,373347.093750,1.000000,1.000000
440396.11999084,4463994.57000153,7.07000017,47,255,0,6.000000,21.000000,373347.093750,1.000000,1.000000
440396.10999634,4463994.43999664,7.32000017,59,255,0,6.000000,5.000000,373347.093750,1.000000,1.000000
440396.09999420,4463994.29999725,7.15999985,52,255,0,6.000000,21.000000,373347.093750,2.000000,1.000000
440396.09999420,4463994.11000244,7.01000023,45,255,0,6.000000,5.000000,373347.093750,1.000000,1.000000
440396.08999207,4463994.00999634,7.13999987,50,255,0,6.000000,21.000000,373347.093750,1.000000,1.000000
440397.44999268,4463993.50000183,7.40999985,62,255,0,6.000000,7.000000,373347.093750,1.000000,1.000000
440397.43999817,4463993.18000214,7.15000010,51,255,0,6.000000,7.000000,373347.093750,1.000000,1.000000
440398.80999329,4463992.83999817,7.92999983,85,255,0,6.000000,9.000000,373347.093750,1.000000,1.000000
440398.80999329,4463992.71000092,7.82000017,80,255,0,6.000000,25.000000,373347.093750,0.000000,1.000000
440400.19999268,4463992.65000336,7.82000017,80,255,0,6.000000,27.000000,373347.093750,1.000000,1.000000
440398.83999207,4463992.44999878,7.34000015,59,255,0,6.000000,9.000000,373347.093750,0.000000,1.000000
440398.84999420,4463992.30999939,7.19000006,53,255,0,6.000000,25.000000,373347.093750,0.000000,1.000000
440400.19999268,4463992.36000244,7.78000021,78,255,0,6.000000,27.000000,373347.093750,1.000000,1.000000
440399.84999420,4463997.36000244,7.94000006,85,255,0,6.000000,9.000000,373347.187500,0.000000,1.000000
440399.75999786,4463997.12999908,8.60999966,114,255,0,6.000000,9.000000,373347.187500,1.000000,1.000000
440399.74999573,4463997.03000061,8.68999958,117,255,0,6.000000,25.000000,373347.187500,1.000000,1.000000
440399.73999359,4463996.85000031,8.56000042,112,255,0,6.000000,9.000000,373347.187500,1.000000,1.000000
440398.31999542,4463996.86999695,8.31999969,101,255,0,6.000000,23.000000,373347.187500,1.000000,1.000000
440399.72999146,4463996.73999969,8.57999992,112,255,0,6.000000,25.000000,373347.187500,1.000000,1.000000
440398.28999664,4463996.72000305,8.42000008,106,255,0,6.000000,7.000000,373347.187500,1.000000,1.000000
440398.26999237,4463996.61999695,8.68000031,117,255,0,6.000000,23.000000,373347.187500,1.000000,1.000000
440398.26999237,4463996.46000092,8.57999992,112,255,0,6.000000,7.000000,373347.187500,1.000000,1.000000
440399.73999359,4463996.25999634,8.13000011,93,255,0,6.000000,9.000000,373347.187500,0.000000,1.000000
440399.68999817,4463996.00000183,8.35000038,103,255,0,6.000000,9.000000,373347.187500,0.000000,1.000000
440395.41999390,4463996.21000092,6.76999998,35,255,0,6.000000,19.000000,373347.187500,1.000000,1.000000
440396.86999084,4463996.08999817,7.55000019,68,255,0,6.000000,21.000000,373347.187500,1.000000,1.000000
440396.84999420,4463995.93000214,7.57000017,69,255,0,6.000000,5.000000,373347.187500,1.000000,1.000000
440398.20999481,4463995.79999725,8.72000027,118,255,0,6.000000,23.000000,373347.187500,1.000000,1.000000
440396.81999542,4463995.65000336,7.59999990,71,255,0,6.000000,5.000000,373347.187500,1.000000,1.000000
440398.19999268,4463995.62999908,8.72999954,119,255,0,6.000000,7.000000,373347.187500,1.000000,1.000000
440399.60999634,4463995.48999969,8.64999962,115,255,0,6.000000,9.000000,373347.187500,1.000000,1.000000
440399.59999420,4463995.36999695,8.63000011,115,255,0,6.000000,25.000000,373347.187500,1.000000,1.000000
440396.78999664,4463995.40000336,7.82999992,80,255,0,6.000000,5.000000,373347.187500,1.000000,1.000000
440396.77999451,4463995.28000061,7.71000004,75,255,0,6.000000,21.000000,373347.187500,1.000000,1.000000
440399.55999329,4463994.96000092,8.50000000,109,255,0,6.000000,9.000000,373347.187500,1.000000,1.000000
440396.72999146,4463994.72000305,6.90999985,41,255,0,6.000000,21.000000,373347.187500,0.000000,1.000000
440396.71999695,4463994.55999939,7.00000000,44,255,0,6.000000,5.000000,373347.187500,1.000000,1.000000
440396.70999481,4463994.47000305,7.11999989,50,255,0,6.000000,21.000000,373347.187500,1.000000,1.000000
440396.70999481,4463994.29000275,7.11999989,50,255,0,6.000000,5.000000,373347.187500,1.000000,1.000000
440398.01999237,4463993.65999786,8.73999977,119,255,0,6.000000,23.000000,373347.187500,0.000000,1.000000
440398.00999786,4463993.40999786,8.85999966,124,255,0,6.000000,23.000000,373347.187500,0.000000,1.000000
440399.44999268,4463992.30999939,7.25000000,56,255,0,6.000000,9.000000,373347.187500,0.000000,1.000000
