//X,Y,Z,R,G,B,Point Source ID,User Data,Time,Classification
440496.60000183,4464172.55000488,11.85000038,253,255,0,3.000000,20.000000,373170.687500,1.000000
440498.04999878,4464178.19999878,12.82999992,255,214,0,2.000000,7.000000,373111.250000,1.000000
440498.49999573,4464180.93998901,12.36999989,255,234,0,2.000000,21.000000,373111.843750,1.000000
440497.21999695,4464178.36000244,12.27000046,255,238,0,2.000000,8.000000,373114.437500,1.000000
440494.80999329,4464178.65999023,12.26000023,255,239,0,2.000000,4.000000,373114.843750,1.000000
440496.28998901,4464175.93998901,12.55000019,255,226,0,2.000000,20.000000,373115.343750,1.000000
440497.13999512,4464180.93998901,12.39999962,255,233,0,2.000000,0.000000,373116.156250,1.000000
440498.88000061,4464174.90001099,13.23999977,255,196,0,3.000000,29.000000,373164.687500,1.000000
440499.19999268,4464181.30000488,12.60000038,255,224,0,3.000000,11.000000,373164.875000,1.000000
440497.68999817,4464175.68998901,12.31999969,255,236,0,3.000000,1.000000,373167.375000,1.000000
440497.91999390,4464177.40001099,12.68000031,255,221,0,3.000000,14.000000,373167.875000,1.000000
440494.67998840,4464174.34999268,13.27000046,255,195,0,2.000000,13.000000,373109.343750,1.000000
440496.77000000,4464174.09999268,11.98999977,255,250,0,2.000000,13.000000,373109.750000,1.000000
440495.02999451,4464174.50999634,13.40999985,255,189,0,2.000000,11.000000,373109.937500,1.000000
440495.90999939,4464173.21000854,11.72000027,247,255,0,2.000000,11.000000,373110.031250,1.000000
440496.27000000,4464173.84999268,11.93999958,255,252,0,2.000000,25.000000,373110.750000,1.000000
440494.88999512,4464174.62001221,13.43000031,255,189,0,2.000000,5.000000,373111.125000,1.000000
440496.44999268,4464174.00999634,12.53999996,255,227,0,2.000000,5.000000,373111.437500,1.000000
440497.49000122,4464174.61000244,12.22999954,255,240,0,2.000000,5.000000,373111.750000,1.000000
440497.06998779,4464174.27000610,12.92000008,255,210,0,2.000000,19.000000,373112.156250,1.000000
440496.04999878,4464174.46998779,12.42000008,255,231,0,2.000000,17.000000,373112.343750,1.000000
440496.81998779,4464174.28999512,12.93999958,255,210,0,2.000000,1.000000,373112.531250,1.000000
440496.91999390,4464172.84999268,11.64000034,244,255,0,2.000000,17.000000,373112.656250,1.000000
440497.82999756,4464174.28999512,12.77000046,255,216,0,2.000000,17.000000,373112.843750,1.000000
440496.41999390,4464174.15001099,12.72000027,255,219,0,2.000000,14.000000,373113.031250,1.000000
440497.94999268,4464173.77000610,12.51000023,255,228,0,2.000000,30.000000,373113.343750,1.000000
440496.74000122,4464174.24000732,11.98999977,255,250,0,2.000000,12.000000,373113.531250,1.000000
440497.77999451,4464173.74998657,12.64999962,255,222,0,2.000000,12.000000,373113.750000,1.000000
440496.14998962,4464174.56999390,12.27000046,255,238,0,2.000000,10.000000,373113.937500,1.000000
440498.02999451,4464174.15001099,12.77999973,255,216,0,2.000000,24.000000,373114.656250,1.000000
440495.69999268,4464172.46998779,11.85999966,253,255,0,2.000000,22.000000,373114.750000,1.000000
440495.94999268,4464172.58000366,11.97999954,255,251,0,2.000000,4.000000,373115.437500,1.000000
440495.85000183,4464174.53999512,12.92000008,255,210,0,2.000000,0.000000,373116.156250,1.000000
440498.96999695,4464173.99998657,12.89999962,255,211,0,3.000000,29.000000,373164.687500,1.000000
440496.85000183,4464174.09001343,12.13000011,255,244,0,3.000000,29.000000,373164.968750,1.000000
440498.94999268,4464173.68000977,12.81000042,255,215,0,3.000000,11.000000,373165.062500,1.000000
440496.52000000,4464172.53999512,11.85999966,253,255,0,3.000000,29.000000,373165.187500,1.000000
440498.91999390,4464173.86000244,12.85000038,255,213,0,3.000000,11.000000,373165.187500,1.000000
440496.90999939,4464174.40999023,12.67000008,255,221,0,3.000000,23.000000,373166.187500,1.000000
440496.77999451,4464173.52998535,11.72000027,247,255,0,3.000000,5.000000,373166.468750,1.000000
440496.21999695,4464174.36000244,12.28999996,255,237,0,3.000000,5.000000,373166.687500,1.000000
440498.83999207,4464173.52998535,12.78999996,255,216,0,3.000000,19.000000,373166.875000,1.000000
440498.71999695,4464173.43000977,12.44999981,255,231,0,3.000000,1.000000,373167.062500,1.000000
440498.70998718,4464173.68000977,12.38000011,255,234,0,3.000000,1.000000,373167.187500,1.000000
440497.75999023,4464174.36000244,12.85999966,255,213,0,3.000000,1.000000,373167.375000,1.000000
440496.88999512,4464174.62999146,12.57999992,255,225,0,3.000000,14.000000,373168.062500,1.000000
440498.30999329,4464174.00999634,12.26000023,255,239,0,3.000000,28.000000,373168.281250,1.000000
440497.67998840,4464173.97999756,12.64999962,255,222,0,3.000000,12.000000,373168.375000,1.000000
440496.63000061,4464172.61000244,11.81999969,252,255,0,3.000000,28.000000,373168.562500,1.000000
440498.38000061,4464173.93000977,11.97999954,255,251,0,3.000000,10.000000,373168.687500,1.000000
440495.67998840,4464174.46000854,13.43999958,255,188,0,3.000000,26.000000,373169.187500,1.000000
440497.92998840,4464174.21000854,13.18999958,255,198,0,3.000000,8.000000,373169.281250,1.000000
440498.60999634,4464173.69999878,12.51000023,255,228,0,3.000000,6.000000,373169.562500,1.000000
440496.60000183,4464172.27998535,11.76000023,249,255,0,3.000000,22.000000,373170.062500,1.000000
440495.78998901,4464174.52000610,13.28999996,255,195,0,3.000000,2.000000,373171.187500,1.000000
440495.10000183,4464180.78999512,13.38000011,255,190,0,1.000000,13.000000,373037.687500,1.000000
440497.77999451,4464179.59999268,12.52000046,255,228,0,1.000000,5.000000,373039.781250,1.000000
440494.67998840,4464179.99000732,12.77000046,255,216,0,2.000000,13.000000,373109.250000,1.000000
440496.52999451,4464175.81001465,12.48999977,255,228,0,2.000000,29.000000,373109.625000,1.000000
440496.79999878,4464177.49998657,12.93999958,255,210,0,2.000000,13.000000,373109.750000,1.000000
440497.03998901,4464176.93000977,12.50000000,255,228,0,2.000000,29.000000,373109.843750,1.000000
440497.00999023,4464176.40001099,12.48999977,255,228,0,2.000000,29.000000,373109.843750,1.000000
440497.96999695,4464180.34999268,12.53999996,255,227,0,2.000000,13.000000,373109.937500,1.000000
440495.40999939,4464179.27000610,12.77000046,255,216,0,2.000000,11.000000,373109.937500,1.000000
440495.10000183,4464174.84999268,12.89999962,255,211,0,2.000000,11.000000,373109.937500,1.000000
440498.50999023,4464176.77998535,12.81999969,255,215,0,2.000000,13.000000,373110.031250,1.000000
440494.63000061,4464181.24998657,12.50000000,255,228,0,2.000000,25.000000,373110.125000,1.000000
440494.53998901,4464180.94999878,13.06999969,255,204,0,2.000000,25.000000,373110.125000,1.000000
440497.57999756,4464176.47999756,12.39000034,255,233,0,2.000000,11.000000,373110.250000,1.000000
440497.44999268,4464174.81001465,12.31000042,255,237,0,2.000000,27.000000,373110.250000,1.000000
440498.27000000,4464179.49000732,12.76000023,255,217,0,2.000000,11.000000,373110.343750,1.000000
440498.10999634,4464176.72999756,12.60000038,255,224,0,2.000000,27.000000,373110.343750,1.000000
440498.24999573,4464178.39000122,12.52000046,255,228,0,2.000000,11.000000,373110.437500,1.000000
440496.25999023,4464178.87001221,12.25000000,255,239,0,2.000000,25.000000,373110.531250,1.000000
440495.99000122,4464175.65999023,12.53999996,255,227,0,2.000000,9.000000,373110.531250,1.000000
440496.69999268,4464180.15001099,13.22000027,255,198,0,2.000000,25.000000,373110.750000,1.000000
440495.53998901,4464175.89000122,12.14999962,255,243,0,2.000000,7.000000,373110.937500,1.000000
440494.46999695,4464180.78999512,13.28999996,255,195,0,2.000000,21.000000,373111.031250,1.000000
440496.53998901,4464176.46000854,12.30000019,255,237,0,2.000000,7.000000,373111.031250,1.000000
440496.46999695,4464175.83000366,12.48999977,255,228,0,2.000000,23.000000,373111.031250,1.000000
440495.70998718,4464179.14000122,12.38000011,255,234,0,2.000000,21.000000,373111.250000,1.000000
440498.47999146,4464176.81999390,12.84000015,255,213,0,2.000000,7.000000,373111.343750,1.000000
440496.00999023,4464176.12001221,12.14000034,255,244,0,2.000000,21.000000,373111.343750,1.000000
440494.65999939,4464180.80000488,13.34000015,255,192,0,2.000000,19.000000,373111.437500,1.000000
440496.60999634,4464175.77000610,12.43999958,255,231,0,2.000000,21.000000,373111.437500,1.000000
440494.68999817,4464181.27998535,12.47999954,255,229,0,2.000000,3.000000,373111.531250,1.000000
440494.64998962,4464180.84999268,13.27999973,255,195,0,2.000000,19.000000,373111.531250,1.000000
440497.42998840,4464179.55000488,12.36999989,255,234,0,2.000000,5.000000,373111.625000,1.000000
440497.82999756,4464178.39000122,12.43000031,255,231,0,2.000000,21.000000,373111.750000,1.000000
440497.63999512,4464176.46998779,13.35000038,255,192,0,2.000000,5.000000,373111.750000,1.000000
440498.35000183,4464179.62999146,12.89999962,255,211,0,2.000000,21.000000,373111.843750,1.000000
440495.46999695,4464174.83000366,12.75000000,255,218,0,2.000000,19.000000,373111.843750,1.000000
440495.77000000,4464175.47999756,12.27999973,255,238,0,2.000000,3.000000,373111.937500,1.000000
440495.69999268,4464174.67000000,12.81999969,255,215,0,2.000000,3.000000,373111.937500,1.000000
440496.44999268,4464177.59999268,12.64999962,255,222,0,2.000000,19.000000,373112.031250,1.000000
440495.21999695,4464179.87999146,12.61999989,255,223,0,2.000000,17.000000,373112.125000,1.000000
440497.45998718,4464178.18000977,12.23999977,255,240,0,2.000000,3.000000,373112.125000,1.000000
440497.39998962,4464177.67000000,12.72000027,255,219,0,2.000000,19.000000,373112.125000,1.000000
440497.29999878,4464176.52998535,12.46000004,255,230,0,2.000000,19.000000,373112.156250,1.000000
440498.11999084,4464176.44999878,13.47000027,255,186,0,2.000000,19.000000,373112.250000,1.000000
440498.00999023,4464175.39000122,12.65999985,255,222,0,2.000000,3.000000,373112.250000,1.000000
440496.41999390,4464177.39000122,12.80000019,255,216,0,2.000000,1.000000,373112.343750,1.000000
440496.69999268,4464176.84001343,12.30000019,255,237,0,2.000000,1.000000,373112.437500,1.000000
440495.05999329,4464180.08000366,12.89000034,255,212,0,2.000000,30.000000,373112.531250,1.000000
440494.99000122,4464179.59001343,12.65999985,255,222,0,2.000000,30.000000,373112.531250,1.000000
440497.19999268,4464177.75999634,12.80000019,255,216,0,2.000000,1.000000,373112.531250,1.000000
440497.85000183,4464180.36000244,12.60999966,255,224,0,2.000000,1.000000,373112.625000,1.000000
440497.38000061,4464176.61000244,12.31999969,255,236,0,2.000000,17.000000,373112.656250,1.000000
440498.05999329,4464178.96000854,12.65999985,255,222,0,2.000000,17.000000,373112.750000,1.000000
440496.78998901,4464180.59001343,12.39000034,255,233,0,2.000000,30.000000,373112.937500,1.000000
440496.55999329,4464178.81999390,12.38000011,255,234,0,2.000000,14.000000,373112.937500,1.000000
440496.56998779,4464175.55000488,12.50000000,255,228,0,2.000000,14.000000,373113.031250,1.000000
440497.38000061,4464176.59001343,12.31000042,255,237,0,2.000000,30.000000,373113.156250,1.000000
440494.74999573,4464175.24998657,12.88000011,255,212,0,2.000000,12.000000,373113.156250,1.000000
440497.71999695,4464175.11000244,13.02000046,255,206,0,2.000000,30.000000,373113.250000,1.000000
440497.72999146,4464176.43998901,13.39999962,255,189,0,2.000000,28.000000,373113.656250,1.000000
440494.96999695,4464174.89000122,13.31999969,255,193,0,2.000000,10.000000,373113.656250,1.000000
440495.53998901,4464176.17000000,12.09000015,255,246,0,2.000000,26.000000,373113.750000,1.000000
440494.38999512,4464180.93000977,13.34000015,255,192,0,2.000000,8.000000,373113.843750,1.000000
440496.25999023,4464177.49000732,12.68999958,255,220,0,2.000000,10.000000,373113.843750,1.000000
440495.02000000,4464175.71000854,12.72999954,255,219,0,2.000000,24.000000,373114.156250,1.000000
440493.83999207,4464177.72999756,12.22000027,255,240,0,2.000000,6.000000,373114.343750,1.000000
440498.55999329,4464174.99000732,12.63000011,255,222,0,2.000000,26.000000,373114.343750,1.000000
440498.02999451,4464178.44999878,12.72000027,255,219,0,2.000000,8.000000,373114.531250,1.000000
440497.68999817,4464176.80000488,12.27999973,255,238,0,2.000000,8.000000,373114.531250,1.000000
440495.02000000,4464175.77998535,12.77000046,255,216,0,2.000000,6.000000,373114.531250,1.000000
440494.24999573,4464181.02998535,13.42000008,255,189,0,2.000000,20.000000,373114.656250,1.000000
440495.15999939,4464180.06999390,12.80000019,255,216,0,2.000000,20.000000,373114.843750,1.000000
440497.04999878,4464176.61000244,12.43000031,255,231,0,2.000000,22.000000,373114.843750,1.000000
440497.99999573,4464178.83000366,12.72999954,255,219,0,2.000000,22.000000,373115.031250,1.000000
440497.79999878,4464177.56999390,12.90999985,255,210,0,2.000000,6.000000,373115.031250,1.000000
440498.19999268,4464178.17000000,12.82999992,255,214,0,2.000000,22.000000,373115.156250,1.000000
440495.05999329,4464175.44999878,12.77999973,255,216,0,2.000000,20.000000,373115.156250,1.000000
440496.63999512,4464177.28999512,12.72999954,255,219,0,2.000000,4.000000,373115.343750,1.000000
440496.74000122,4464176.27998535,12.26000023,255,239,0,2.000000,4.000000,373115.437500,1.000000
440498.27000000,4464180.12001221,12.77999973,255,216,0,2.000000,4.000000,373115.531250,1.000000
440494.56998779,4464180.87001221,13.35999966,255,192,0,2.000000,16.000000,373115.750000,1.000000
440495.17998840,4464179.75999634,12.80000019,255,216,0,2.000000,16.000000,373115.937500,1.000000
440497.74000122,4464179.39000122,12.36999989,255,234,0,2.000000,16.000000,373116.250000,1.000000
440498.24000122,4464176.47999756,12.36999989,255,234,0,3.000000,31.000000,373164.187500,1.000000
440498.80999329,4464179.56999390,12.35999966,255,234,0,3.000000,29.000000,373164.468750,1.000000
440496.82999756,4464174.72999756,12.60000038,255,224,0,3.000000,13.000000,373164.968750,1.000000
440495.99000122,4464179.92000000,12.56999969,255,225,0,3.000000,29.000000,373164.968750,1.000000
440496.78998901,4464175.96000854,12.27000046,255,238,0,3.000000,11.000000,373165.468750,1.000000
440498.81998779,4464175.31001465,13.25000000,255,196,0,3.000000,9.000000,373165.562500,1.000000
440499.22999146,4464179.81999390,12.85999966,255,213,0,3.000000,7.000000,373165.781250,1.000000
440499.11999084,4464175.17000000,12.71000004,255,219,0,3.000000,23.000000,373165.875000,1.000000
440497.64998962,4464176.78999512,12.31999969,255,236,0,3.000000,7.000000,373166.062500,1.000000
440496.77000000,4464175.42000000,12.44999981,255,231,0,3.000000,7.000000,373166.187500,1.000000
440499.15999939,4464176.52000610,12.96000004,255,208,0,3.000000,5.000000,373166.187500,1.000000
440499.49000122,4464180.06001465,13.06999969,255,204,0,3.000000,3.000000,373166.375000,1.000000
440499.10999634,4464175.05000488,12.75000000,255,218,0,3.000000,3.000000,373166.468750,1.000000
440498.99999573,4464176.68000977,12.56000042,255,225,0,3.000000,19.000000,373166.562500,1.000000
440498.61999084,4464180.77998535,12.72999954,255,219,0,3.000000,3.000000,373166.562500,1.000000
440495.53998901,4464181.11000244,13.27999973,255,195,0,3.000000,5.000000,373166.687500,1.000000
440497.24000122,4464177.31999390,12.43999958,255,231,0,3.000000,3.000000,373166.968750,1.000000
440498.10999634,4464181.06001465,12.39000034,255,233,0,3.000000,1.000000,373167.062500,1.000000
440497.06998779,4464177.61000244,12.65999985,255,222,0,3.000000,17.000000,373167.562500,1.000000
440498.75999023,4464178.27998535,13.10000038,255,202,0,3.000000,14.000000,373167.687500,1.000000
440498.57999756,4464174.71998779,12.52999973,255,227,0,3.000000,14.000000,373167.781250,1.000000
440496.06998779,4464174.68998901,13.31999969,255,193,0,3.000000,17.000000,373167.781250,1.000000
440497.35000183,4464178.80000488,12.48999977,255,228,0,3.000000,30.000000,373167.968750,1.000000
440496.82999756,4464176.08000366,12.36999989,255,234,0,3.000000,30.000000,373168.062500,1.000000
440498.05999329,4464177.53999512,12.84000015,255,213,0,3.000000,28.000000,373168.281250,1.000000
440496.42998840,4464174.71998779,12.78999996,255,216,0,3.000000,12.000000,373168.562500,1.000000
440496.18999817,4464179.93000977,12.60999966,255,224,0,3.000000,28.000000,373168.562500,1.000000
440496.91999390,4464177.72999756,12.56000042,255,225,0,3.000000,26.000000,373168.875000,1.000000
440499.35000183,4464179.74000732,12.97999954,255,207,0,3.000000,8.000000,373168.875000,1.000000
440498.90999939,4464179.81001465,12.72000027,255,219,0,3.000000,24.000000,373168.968750,1.000000
440498.65999939,4464176.18000977,12.47999954,255,229,0,3.000000,8.000000,373169.062500,1.000000
440498.56998779,4464179.58000366,12.60000038,255,224,0,3.000000,24.000000,373169.062500,1.000000
440498.02999451,4464176.87999146,12.38000011,255,234,0,3.000000,24.000000,373169.281250,1.000000
440495.25999023,4464180.72999756,13.25000000,255,196,0,3.000000,26.000000,373169.281250,1.000000
440497.46999695,4464175.69999878,12.60000038,255,224,0,3.000000,8.000000,373169.375000,1.000000
440497.45998718,4464178.71000854,12.38000011,255,234,0,3.000000,24.000000,373169.375000,1.000000
440496.69999268,4464174.74998657,12.84000015,255,213,0,3.000000,8.000000,373169.468750,1.000000
440496.75999023,4464176.21998779,12.47000027,255,230,0,3.000000,24.000000,373169.468750,1.000000
440498.63000061,4464174.74998657,12.61999989,255,223,0,3.000000,6.000000,373169.562500,1.000000
440498.90999939,4464175.28999512,13.11999989,255,201,0,3.000000,20.000000,373170.062500,1.000000
440498.95998718,4464178.02998535,13.11999989,255,201,0,3.000000,20.000000,373170.093750,1.000000
440499.10000183,4464179.33000366,12.47000027,255,230,0,3.000000,20.000000,373170.093750,1.000000
440495.88999512,4464180.58000366,12.48999977,255,228,0,3.000000,22.000000,373170.187500,1.000000
440497.49999573,4464177.46998779,12.86999989,255,213,0,3.000000,20.000000,373170.593750,1.000000
440496.38000061,4464174.68000977,12.78999996,255,216,0,3.000000,4.000000,373170.687500,1.000000
440495.72999146,4464179.97999756,12.61999989,255,223,0,3.000000,20.000000,373170.781250,1.000000
440496.81998779,4464177.12999146,12.10999966,255,245,0,3.000000,16.000000,373171.593750,1.000000
440496.10999634,4464179.18998901,12.84000015,255,213,0,3.000000,0.000000,373171.687500,1.000000
440494.93999817,4464180.18998901,12.65999985,255,222,0,3.000000,0.000000,373171.968750,1.000000
440497.66999390,4464172.34999268,10.53999996,197,255,0,2.000000,19.000000,373112.250000,1.000000
440498.83999207,4464172.62001221,10.88000011,211,255,0,3.000000,17.000000,373167.062500,1.000000
440497.85999634,4464172.42000000,11.36999989,232,255,0,3.000000,4.000000,373170.562500,1.000000
440497.66999390,4464172.58000366,10.47000027,194,255,0,2.000000,16.000000,373116.656250,1.000000
440498.72999146,4464172.52000610,10.55000019,197,255,0,3.000000,21.000000,373166.281250,1.000000
440498.89998962,4464172.40999023,9.27999973,142,255,0,3.000000,1.000000,373167.062500,1.000000
440497.99999573,4464172.65001099,10.21000004,183,255,0,3.000000,1.000000,373167.375000,1.000000
440497.94999268,4464172.58000366,11.53999996,240,255,0,3.000000,17.000000,373167.468750,1.000000
440498.85000183,4464172.71000854,10.73999977,205,255,0,3.000000,14.000000,373167.781250,1.000000
440497.82999756,4464172.62999146,11.50000000,238,255,0,3.000000,30.000000,373167.968750,1.000000
440497.55999329,4464172.75999634,10.22999954,183,255,0,3.000000,28.000000,373168.468750,1.000000
440498.30999329,4464172.49998657,10.94999981,214,255,0,3.000000,24.000000,373169.281250,1.000000
440498.99000122,4464172.74998657,10.80000019,208,255,0,3.000000,6.000000,373169.562500,1.000000
440497.88000061,4464172.42000000,11.52999973,239,255,0,3.000000,16.000000,373171.375000,1.000000
440496.96999695,4464172.67000000,11.50000000,238,255,0,2.000000,31.000000,373109.250000,1.000000
440495.60999634,4464172.71998779,11.39000034,233,255,0,2.000000,13.000000,373109.437500,1.000000
440496.77999451,4464172.59001343,11.17000008,224,255,0,2.000000,29.000000,373109.750000,1.000000
440496.71999695,4464172.42000000,11.52999973,239,255,0,2.000000,13.000000,373109.750000,1.000000
440496.93999817,4464172.75999634,11.38000011,233,255,0,2.000000,13.000000,373109.843750,1.000000
440497.52000000,4464172.25999634,10.47000027,194,255,0,2.000000,11.000000,373110.250000,1.000000
440497.02999451,4464172.78999512,11.32999992,231,255,0,2.000000,9.000000,373110.843750,1.000000
440497.00999023,4464172.67000000,11.56000042,240,255,0,2.000000,25.000000,373110.843750,1.000000
440496.27000000,4464172.53999512,11.31999969,230,255,0,2.000000,7.000000,373111.031250,1.000000
440497.66999390,4464172.34999268,10.52000046,195,255,0,2.000000,7.000000,373111.250000,1.000000
440496.38000061,4464172.77000610,11.10999966,221,255,0,2.000000,21.000000,373111.437500,1.000000
440496.85000183,4464172.75999634,10.22999954,183,255,0,2.000000,5.000000,373111.656250,1.000000
440497.32999756,4464172.46998779,10.72999954,204,255,0,2.000000,5.000000,373111.750000,1.000000
440496.89998962,4464172.74000732,10.28999996,186,255,0,2.000000,19.000000,373112.156250,1.000000
440496.90999939,4464172.75999634,11.14999962,223,255,0,2.000000,3.000000,373112.156250,1.000000
440496.18999817,4464172.71998779,11.35999966,232,255,0,2.000000,17.000000,373112.437500,1.000000
440497.21999695,4464172.46998779,10.85000038,210,255,0,2.000000,1.000000,373112.750000,1.000000
440496.71999695,4464172.72999756,10.23999977,183,255,0,2.000000,30.000000,373113.156250,1.000000
440497.20998718,4464172.50999634,10.85000038,210,255,0,2.000000,14.000000,373113.250000,1.000000
440497.63999512,4464172.52000610,10.53999996,197,255,0,2.000000,30.000000,373113.343750,1.000000
440496.46999695,4464172.77000610,11.36999989,232,255,0,2.000000,28.000000,373113.531250,1.000000
440497.74000122,4464172.25999634,10.43000031,192,255,0,2.000000,12.000000,373113.843750,1.000000
440498.07999756,4464172.52998535,9.10000038,135,255,0,2.000000,12.000000,373113.937500,1.000000
440497.42998840,4464172.56001465,10.59000015,198,255,0,2.000000,8.000000,373114.656250,1.000000
440497.35000183,4464172.72999756,10.84000015,210,255,0,2.000000,22.000000,373115.250000,1.000000
440497.60999634,4464172.59999268,10.53999996,197,255,0,2.000000,18.000000,373116.156250,1.000000
440498.16999390,4464172.69999878,10.77999973,207,255,0,3.000000,15.000000,373164.281250,1.000000
440499.02000000,4464172.68998901,9.25000000,142,255,0,3.000000,13.000000,373164.562500,1.000000
440498.74000122,4464172.43000977,9.06999969,133,255,0,3.000000,27.000000,373165.062500,1.000000
440498.86999084,4464172.74998657,10.75000000,206,255,0,3.000000,11.000000,373165.062500,1.000000
440498.74000122,4464172.46998779,9.00000000,130,255,0,3.000000,11.000000,373165.187500,1.000000
440498.86999084,4464172.68000977,10.68999958,203,255,0,3.000000,27.000000,373165.187500,1.000000
440497.92998840,4464172.62001221,11.48999977,237,255,0,3.000000,27.000000,373165.375000,1.000000
440498.86999084,4464172.49000732,9.21000004,139,255,0,3.000000,9.000000,373165.562500,1.000000
440498.22999146,4464172.52000610,10.92000008,213,255,0,3.000000,25.000000,373165.687500,1.000000
440498.65999939,4464172.44999878,9.07999992,134,255,0,3.000000,23.000000,373165.968750,1.000000
440498.74000122,4464172.34001343,10.38000011,189,255,0,3.000000,7.000000,373165.968750,1.000000
440498.70998718,4464172.77998535,10.64000034,201,255,0,3.000000,7.000000,373165.968750,1.000000
440499.27999451,4464172.74000732,9.22999954,140,255,0,3.000000,19.000000,373166.468750,1.000000
440498.85999634,4464172.43998901,9.25000000,142,255,0,3.000000,3.000000,373166.687500,1.000000
440498.85000183,4464172.61000244,9.39000034,148,255,0,3.000000,19.000000,373166.687500,1.000000
440498.99999573,4464172.40001099,9.13000011,136,255,0,3.000000,3.000000,373166.875000,1.000000
440497.68999817,4464172.52998535,11.28999996,229,255,0,3.000000,19.000000,373166.968750,1.000000
440498.92998840,4464172.36000244,9.25000000,142,255,0,3.000000,17.000000,373167.187500,1.000000
440498.90999939,4464172.62999146,9.39999962,148,255,0,3.000000,1.000000,373167.187500,1.000000
440498.85000183,4464172.68998901,10.81000042,208,255,0,3.000000,1.000000,373167.187500,1.000000
440498.57999756,4464172.36000244,10.63000011,201,255,0,3.000000,1.000000,373167.281250,1.000000
440497.97999146,4464172.44999878,11.46000004,236,255,0,3.000000,17.000000,373167.375000,1.000000
440497.94999268,4464172.68998901,11.65999985,245,255,0,3.000000,1.000000,373167.375000,1.000000
440498.02000000,4464172.56001465,10.05000019,175,255,0,3.000000,17.000000,373167.468750,1.000000
440497.52000000,4464172.68998901,11.38000011,233,255,0,3.000000,17.000000,373167.562500,1.000000
440498.92998840,4464172.74000732,9.69999981,160,255,0,3.000000,30.000000,373167.781250,1.000000
440497.94999268,4464172.59999268,10.10000038,177,255,0,3.000000,30.000000,373167.968750,1.000000
440497.99000122,4464172.62001221,10.43999958,192,255,0,3.000000,12.000000,373168.375000,1.000000
440497.88000061,4464172.47999756,11.52999973,239,255,0,3.000000,28.000000,373168.375000,1.000000
440498.81998779,4464172.44999878,9.27000046,142,255,0,3.000000,26.000000,373168.687500,1.000000
440497.99000122,4464172.52000610,10.75000000,206,255,0,3.000000,10.000000,373168.781250,1.000000
440497.88999512,4464172.49000732,11.48999977,237,255,0,3.000000,26.000000,373168.781250,1.000000
440497.21999695,4464172.74998657,11.31000042,230,255,0,3.000000,26.000000,373168.875000,1.000000
440499.61999084,4464172.74000732,9.11999989,136,255,0,3.000000,8.000000,373168.968750,1.000000
440498.88000061,4464172.31001465,9.35999966,146,255,0,3.000000,24.000000,373169.187500,1.000000
440498.61999084,4464172.37999146,10.68000031,203,255,0,3.000000,24.000000,373169.187500,1.000000
440498.64998962,4464172.61000244,8.97000027,129,255,0,3.000000,24.000000,373169.281250,1.000000
440498.18999817,4464172.77998535,11.61999989,243,255,0,3.000000,24.000000,373169.281250,1.000000
440497.88000061,4464172.37999146,10.32999992,188,255,0,3.000000,24.000000,373169.375000,1.000000
440497.85000183,4464172.65999023,10.42000008,192,255,0,3.000000,8.000000,373169.375000,1.000000
440498.70998718,4464172.43998901,9.17000008,138,255,0,3.000000,6.000000,373169.687500,1.000000
440498.32999756,4464172.59001343,10.97000027,215,255,0,3.000000,22.000000,373169.687500,1.000000
440498.45998718,4464172.25999634,10.69999981,204,255,0,3.000000,20.000000,373170.375000,1.000000
440498.86999084,4464172.37999146,9.27000046,142,255,0,3.000000,4.000000,373170.468750,1.000000
440498.43999817,4464172.39000122,10.72999954,204,255,0,3.000000,4.000000,373170.468750,1.000000
440497.78998901,4464172.53999512,11.60999966,243,255,0,3.000000,20.000000,373170.562500,1.000000
440498.47999146,4464172.19999878,10.67000008,202,255,0,3.000000,0.000000,373171.281250,1.000000
440498.04999878,4464172.37999146,10.97000027,215,255,0,3.000000,0.000000,373171.375000,1.000000
440497.33999207,4464172.67000000,11.39000034,233,255,0,3.000000,16.000000,373171.468750,1.000000
440493.29999878,4464175.59999268,11.47999954,237,255,0,2.000000,31.000000,373108.531250,1.000000
440494.18999817,4464177.46000854,12.03999996,255,248,0,2.000000,27.000000,373109.625000,1.000000
440492.17998840,4464178.77998535,11.06999969,219,255,0,2.000000,9.000000,373109.750000,1.000000
440492.38999512,4464177.27000610,11.43000031,235,255,0,2.000000,5.000000,373110.843750,1.000000
440491.27999451,4464178.24000732,11.93999958,255,252,0,2.000000,1.000000,373111.343750,1.000000
440492.17998840,4464179.55000488,9.57999992,155,255,0,2.000000,12.000000,373112.531250,1.000000
440492.50999023,4464178.56001465,11.27000046,228,255,0,2.000000,28.000000,373112.656250,1.000000
440491.95998718,4464179.27998535,10.84000015,210,255,0,2.000000,22.000000,373114.031250,1.000000
440492.83999207,4464175.65999023,11.81999969,252,255,0,2.000000,4.000000,373114.656250,1.000000
440494.54999878,4464180.84001343,11.52999973,239,255,0,2.000000,20.000000,373114.750000,1.000000
440493.89998962,4464177.24998657,11.26000023,228,255,0,3.000000,13.000000,373165.468750,1.000000
440494.39998962,4464176.49998657,11.21000004,225,255,0,3.000000,27.000000,373165.781250,1.000000
440493.78998901,4464177.74000732,11.69999981,246,255,0,3.000000,7.000000,373166.468750,1.000000
440494.44999268,4464179.67000000,11.77999973,250,255,0,3.000000,5.000000,373166.968750,1.000000
440491.27000000,4464177.53999512,10.26000023,185,255,0,3.000000,5.000000,373167.687500,1.000000
440492.96999695,4464180.14000122,9.97999954,172,255,0,3.000000,1.000000,373168.281250,1.000000
440493.99999573,4464175.84999268,11.31000042,230,255,0,3.000000,30.000000,373168.562500,1.000000
440493.61999084,4464177.67000000,11.77999973,250,255,0,3.000000,12.000000,373169.062500,1.000000
440492.78998901,4464175.49000732,10.73999977,205,255,0,3.000000,8.000000,373170.593750,1.000000
440492.05999329,4464179.67000000,10.01000023,174,255,0,3.000000,4.000000,373171.593750,1.000000
440493.14998962,4464175.12001221,10.09000015,177,255,0,3.000000,16.000000,373172.468750,1.000000
440493.83999207,4464174.27998535,11.10000038,221,255,0,2.000000,27.000000,373109.531250,1.000000
440493.46999695,4464174.18998901,10.75000000,206,255,0,2.000000,7.000000,373110.531250,1.000000
440493.43999817,4464174.19999878,11.30000019,229,255,0,2.000000,23.000000,373110.531250,1.000000
440493.45998718,4464174.30000488,11.34000015,231,255,0,2.000000,14.000000,373112.343750,1.000000
440493.55999329,4464174.56999390,9.76000023,163,255,0,3.000000,24.000000,373170.281250,1.000000
440493.89998962,4464174.49000732,11.02999973,218,255,0,3.000000,16.000000,373172.281250,1.000000
440493.97999146,4464182.09999268,9.93999958,171,255,0,2.000000,31.000000,373108.531250,1.000000
440491.25999023,4464179.97999756,10.14999962,180,255,0,2.000000,29.000000,373108.531250,1.000000
440493.47999146,4464178.80000488,11.60999966,243,255,0,2.000000,15.000000,373108.531250,1.000000
440491.08999207,4464177.46000854,11.77999973,250,255,0,2.000000,29.000000,373108.625000,1.000000
440493.77000000,4464178.43000977,11.93000031,255,253,0,2.000000,15.000000,373108.750000,1.000000
440491.33999207,4464178.33000366,11.36999989,232,255,0,2.000000,29.000000,373108.750000,1.000000
440491.96999695,4464178.81999390,11.13000011,222,255,0,2.000000,13.000000,373108.843750,1.000000
440491.79999878,4464178.12999146,12.01000023,255,249,0,2.000000,13.000000,373108.843750,1.000000
440492.88999512,4464179.18998901,10.14000034,180,255,0,2.000000,29.000000,373108.937500,1.000000
440493.50999023,4464179.96000854,11.39000034,233,255,0,2.000000,29.000000,373109.031250,1.000000
440491.13999512,4464179.47999756,9.89999962,169,255,0,2.000000,11.000000,373109.031250,1.000000
440493.39998962,4464178.71998779,11.61999989,243,255,0,2.000000,13.000000,373109.031250,1.000000
440490.94999268,4464177.99000732,10.72000027,204,255,0,2.000000,27.000000,373109.031250,1.000000
440491.75999023,4464178.19999878,11.69999981,246,255,0,2.000000,27.000000,373109.125000,1.000000
440491.78998901,4464175.58000366,10.06999969,177,255,0,2.000000,27.000000,373109.125000,1.000000
440494.07999756,4464175.71000854,11.81999969,252,255,0,2.000000,13.000000,373109.125000,1.000000
440492.16999390,4464175.94999878,11.02999973,218,255,0,2.000000,27.000000,373109.250000,1.000000
440493.27000000,4464181.75999634,9.02000046,131,255,0,2.000000,11.000000,373109.343750,1.000000
440492.83999207,4464178.59001343,10.56000042,198,255,0,2.000000,11.000000,373109.343750,1.000000
440492.79999878,4464178.47999756,10.84000015,210,255,0,2.000000,27.000000,373109.343750,1.000000
440492.53998901,4464176.21000854,11.56000042,240,255,0,2.000000,27.000000,373109.343750,1.000000
440493.22999146,4464175.28999512,11.43999958,235,255,0,2.000000,27.000000,373109.437500,1.000000
440494.40999939,4464181.81001465,11.02999973,218,255,0,2.000000,27.000000,373109.531250,1.000000
440494.08999207,4464179.11000244,12.00000000,255,250,0,2.000000,27.000000,373109.531250,1.000000
440491.72999146,4464178.55000488,10.32999992,188,255,0,2.000000,9.000000,373109.531250,1.000000
440491.61999084,4464178.33000366,11.23999977,227,255,0,2.000000,9.000000,373109.531250,1.000000
440492.00999023,4464179.40001099,10.64999962,201,255,0,2.000000,9.000000,373109.625000,1.000000
440491.91999390,4464178.43998901,10.89000034,212,255,0,2.000000,9.000000,373109.625000,1.000000
440492.44999268,4464179.28999512,10.56999969,198,255,0,2.000000,25.000000,373109.843750,1.000000
440492.27000000,4464176.93998901,10.50000000,195,255,0,2.000000,9.000000,373109.843750,1.000000
440494.17998840,4464181.50999634,10.35000038,189,255,0,2.000000,9.000000,373110.031250,1.000000
440492.10999634,4464179.21998779,10.81000042,208,255,0,2.000000,7.000000,373110.125000,1.000000
440492.04999878,4464178.40999023,10.64999962,201,255,0,2.000000,23.000000,373110.125000,1.000000
440492.67998840,4464176.18998901,11.60999966,243,255,0,2.000000,7.000000,373110.250000,1.000000
440493.10000183,4464174.93998901,11.09000015,220,255,0,2.000000,7.000000,373110.343750,1.000000
440493.06998779,4464174.77998535,11.21000004,225,255,0,2.000000,23.000000,373110.343750,1.000000
440493.86999084,4464179.24998657,12.14999962,255,243,0,2.000000,7.000000,373110.531250,1.000000
440493.85000183,4464179.08000366,12.25000000,255,239,0,2.000000,23.000000,373110.531250,1.000000
440493.63000061,4464174.81001465,11.39999962,234,255,0,2.000000,23.000000,373110.625000,1.000000
440494.16999390,4464177.68000977,10.72999954,204,255,0,2.000000,23.000000,373110.750000,1.000000
440493.97999146,4464176.05000488,12.03999996,255,248,0,2.000000,23.000000,373110.750000,1.000000
440493.25999023,4464177.80000488,11.68999958,246,255,0,2.000000,21.000000,373110.937500,1.000000
440493.10999634,4464176.27000610,11.19999981,225,255,0,2.000000,5.000000,373110.937500,1.000000
440491.74999573,4464177.84999268,12.05000019,255,248,0,2.000000,3.000000,373111.031250,1.000000
440491.64998962,4464176.97999756,11.39000034,233,255,0,2.000000,19.000000,373111.031250,1.000000
440493.95998718,4464174.97999756,10.90999985,213,255,0,2.000000,21.000000,373111.031250,1.000000
440493.24999573,4464182.59001343,9.17000008,138,255,0,2.000000,3.000000,373111.125000,1.000000
440492.55999329,4464176.02000610,11.78999996,250,255,0,2.000000,19.000000,373111.125000,1.000000
440490.63000061,4464177.59001343,11.67000008,245,255,0,2.000000,1.000000,373111.250000,1.000000
440492.80999329,4464174.86000244,10.97999954,216,255,0,2.000000,19.000000,373111.250000,1.000000
440494.11999084,4464181.83000366,10.22000027,183,255,0,2.000000,19.000000,373111.343750,1.000000
440493.83999207,4464179.11000244,12.19999981,255,241,0,2.000000,3.000000,373111.343750,1.000000
440493.80999329,4464178.87999146,12.03999996,255,248,0,2.000000,19.000000,373111.343750,1.000000
440493.39998962,4464174.78999512,11.34000015,231,255,0,2.000000,3.000000,373111.343750,1.000000
440491.92998840,4464178.47999756,11.65999985,245,255,0,2.000000,17.000000,373111.437500,1.000000
440492.42998840,4464179.81999390,9.02999973,132,255,0,2.000000,17.000000,373111.625000,1.000000
440492.60999634,4464175.68000977,11.93999958,255,252,0,2.000000,17.000000,373111.750000,1.000000
440493.02999451,4464175.77998535,11.42000008,234,255,0,2.000000,1.000000,373111.843750,1.000000
440492.94999268,4464175.03999512,11.35999966,232,255,0,2.000000,17.000000,373111.843750,1.000000
440493.69999268,4464179.37999146,11.89000034,255,255,0,2.000000,17.000000,373111.937500,1.000000
440491.95998718,4464175.08000366,9.98999977,173,255,0,2.000000,14.000000,373112.156250,1.000000
440493.31998779,4464178.19999878,11.78999996,250,255,0,2.000000,30.000000,373112.250000,1.000000
440492.88999512,4464174.96000854,11.13000011,222,255,0,2.000000,30.000000,373112.250000,1.000000
440494.49000122,4464182.75999634,10.60000038,199,255,0,2.000000,14.000000,373112.343750,1.000000
440491.46999695,4464177.93000977,12.19999981,255,241,0,2.000000,12.000000,373112.343750,1.000000
440492.44999268,4464179.64000122,9.05000019,133,255,0,2.000000,12.000000,373112.625000,1.000000
440492.50999023,4464178.87001221,10.68000031,203,255,0,2.000000,28.000000,373112.656250,1.000000
440492.65999939,4464176.42000000,11.64999962,244,255,0,2.000000,28.000000,373112.750000,1.000000
440493.20998718,4464177.99000732,11.57999992,241,255,0,2.000000,12.000000,373112.843750,1.000000
440494.10999634,4464179.65001099,11.76000023,249,255,0,2.000000,28.000000,373112.937500,1.000000
440493.89998962,4464177.80000488,12.07999992,255,246,0,2.000000,28.000000,373112.937500,1.000000
440493.49000122,4464178.56999390,11.72999954,248,255,0,2.000000,26.000000,373113.343750,1.000000
440491.60000183,4464175.68000977,10.84000015,210,255,0,2.000000,24.000000,373113.531250,1.000000
440494.21999695,4464182.94999878,10.52000046,195,255,0,2.000000,24.000000,373113.843750,1.000000
440493.02000000,4464175.17000000,11.23999977,227,255,0,2.000000,8.000000,373113.843750,1.000000
440493.74999573,4464176.02998535,11.93999958,255,252,0,2.000000,24.000000,373113.937500,1.000000
440493.50999023,4464175.06001465,11.56999969,241,255,0,2.000000,8.000000,373113.937500,1.000000
440491.96999695,4464179.06001465,11.13000011,222,255,0,2.000000,6.000000,373114.031250,1.000000
440494.54999878,4464177.80000488,11.77000046,249,255,0,2.000000,24.000000,373114.031250,1.000000
440490.55999329,4464177.99000732,11.52000046,239,255,0,2.000000,20.000000,373114.250000,1.000000
440492.81998779,4464175.84001343,11.46000004,236,255,0,2.000000,6.000000,373114.250000,1.000000
440492.89998962,4464182.55000488,9.53999996,154,255,0,2.000000,20.000000,373114.531250,1.000000
440492.47999146,4464178.78999512,11.05000019,219,255,0,2.000000,20.000000,373114.531250,1.000000
440493.35999634,4464174.86000244,11.39000034,233,255,0,2.000000,4.000000,373114.750000,1.000000
440494.22999146,4464176.65001099,10.68999958,203,255,0,2.000000,20.000000,373114.937500,1.000000
440494.39998962,4464176.55000488,10.44999981,192,255,0,2.000000,4.000000,373115.031250,1.000000
440494.21999695,4464181.71998779,9.13000011,136,255,0,3.000000,29.000000,373165.281250,1.000000
440494.40999939,4464178.56999390,11.17000008,224,255,0,3.000000,29.000000,373165.375000,1.000000
440494.24999573,4464174.84999268,11.06999969,219,255,0,3.000000,29.000000,373165.468750,1.000000
440494.16999390,4464175.37999146,11.14000034,222,255,0,3.000000,29.000000,373165.468750,1.000000
440492.52000000,4464180.62001221,10.21000004,183,255,0,3.000000,13.000000,373165.562500,1.000000
440492.42998840,4464181.15999023,10.14000034,180,255,0,3.000000,13.000000,373165.562500,1.000000
440492.57999756,4464175.81999390,10.84000015,210,255,0,3.000000,13.000000,373165.687500,1.000000
440492.38000061,4464178.27000610,12.21000004,255,241,0,3.000000,29.000000,373165.687500,1.000000
440491.60999634,4464177.84001343,11.64000034,244,255,0,3.000000,29.000000,373165.781250,1.000000
440493.94999268,4464175.27000610,11.31000042,230,255,0,3.000000,27.000000,373165.875000,1.000000
440492.38999512,4464177.31001465,11.72999954,248,255,0,3.000000,11.000000,373166.062500,1.000000
440491.96999695,4464178.12999146,11.85999966,253,255,0,3.000000,25.000000,373166.375000,1.000000
440494.44999268,4464178.87001221,11.60000038,242,255,0,3.000000,23.000000,373166.375000,1.000000
440493.63000061,4464178.52998535,11.39999962,234,255,0,3.000000,7.000000,373166.468750,1.000000
440493.45998718,4464179.50999634,10.42000008,192,255,0,3.000000,7.000000,373166.468750,1.000000
440494.06998779,4464175.59001343,11.50000000,238,255,0,3.000000,23.000000,373166.562500,1.000000
440493.86999084,4464177.09001343,11.25000000,227,255,0,3.000000,7.000000,373166.562500,1.000000
440493.43999817,4464174.93998901,10.73999977,205,255,0,3.000000,7.000000,373166.781250,1.000000
440493.39998962,4464175.71998779,11.59000015,242,255,0,3.000000,7.000000,373166.781250,1.000000
440490.54999878,4464176.74998657,9.76000023,163,255,0,3.000000,9.000000,373166.781250,1.000000
440493.68999817,4464174.83000366,10.81999969,209,255,0,3.000000,23.000000,373166.875000,1.000000
440493.10000183,4464179.44999878,10.77999973,207,255,0,3.000000,21.000000,373167.062500,1.000000
440493.32999756,4464177.89000122,10.97000027,215,255,0,3.000000,21.000000,373167.187500,1.000000
440493.15999939,4464179.46000854,10.81000042,208,255,0,3.000000,5.000000,373167.187500,1.000000
440493.02000000,4464177.83000366,11.02999973,218,255,0,3.000000,5.000000,373167.281250,1.000000
440492.04999878,4464177.68000977,11.81000042,251,255,0,3.000000,21.000000,373167.562500,1.000000
440493.95998718,4464176.28999512,11.53999996,240,255,0,3.000000,19.000000,373167.687500,1.000000
440491.29999878,4464177.22999756,10.18000031,181,255,0,3.000000,21.000000,373167.687500,1.000000
440493.81998779,4464177.74000732,11.85999966,253,255,0,3.000000,19.000000,373167.687500,1.000000
440493.55999329,4464175.67000000,11.75000000,249,255,0,3.000000,19.000000,373167.781250,1.000000
440493.02000000,4464176.58000366,10.89999962,212,255,0,3.000000,19.000000,373167.875000,1.000000
440492.77000000,4464179.25999634,10.75000000,206,255,0,3.000000,3.000000,373167.875000,1.000000
440494.30999329,4464177.09999268,10.81000042,208,255,0,3.000000,1.000000,373168.062500,1.000000
440491.69999268,4464177.71000854,11.72999954,248,255,0,3.000000,3.000000,373168.062500,1.000000
440494.05999329,4464174.94999878,11.17000008,224,255,0,3.000000,17.000000,373168.187500,1.000000
440491.32999756,4464177.42000000,10.17000008,180,255,0,3.000000,19.000000,373168.187500,1.000000
440492.99999573,4464179.47999756,10.77000046,207,255,0,3.000000,17.000000,373168.281250,1.000000
440492.71999695,4464175.68998901,11.06000042,219,255,0,3.000000,1.000000,373168.375000,1.000000
440492.49999573,4464177.97999756,12.28999996,255,237,0,3.000000,1.000000,373168.375000,1.000000
440493.71999695,4464182.34999268,9.39000034,148,255,0,3.000000,30.000000,373168.562500,1.000000
440493.32999756,4464176.15999023,11.40999985,234,255,0,3.000000,30.000000,373168.687500,1.000000
440493.24999573,4464177.71000854,11.09000015,220,255,0,3.000000,14.000000,373168.687500,1.000000
440492.79999878,4464175.61000244,10.89000034,212,255,0,3.000000,30.000000,373168.781250,1.000000
440492.64998962,4464177.37001221,11.60999966,243,255,0,3.000000,14.000000,373168.781250,1.000000
440491.94999268,4464177.72999756,11.96000004,255,252,0,3.000000,30.000000,373168.875000,1.000000
440494.44999268,4464182.09999268,10.02999973,174,255,0,3.000000,28.000000,373168.875000,1.000000
440493.63999512,4464178.46000854,11.39999962,234,255,0,3.000000,12.000000,373169.062500,1.000000
440493.80999329,4464174.65001099,10.97000027,215,255,0,3.000000,26.000000,373169.562500,1.000000
440490.74999573,4464176.67000000,9.65999985,159,255,0,3.000000,12.000000,373169.687500,1.000000
440493.00999023,4464178.40001099,12.10999966,255,245,0,3.000000,26.000000,373169.687500,1.000000
440492.03998901,4464179.49998657,9.77999973,164,255,0,3.000000,26.000000,373169.968750,1.000000
440491.68999817,4464177.25999634,10.18999958,181,255,0,3.000000,10.000000,373170.093750,1.000000
440491.46999695,4464177.77000610,11.65999985,245,255,0,3.000000,10.000000,373170.093750,1.000000
440493.49000122,4464176.34001343,11.55000019,240,255,0,3.000000,24.000000,373170.187500,1.000000
440493.30999329,4464179.24998657,10.81000042,208,255,0,3.000000,24.000000,373170.281250,1.000000
440493.28998901,4464175.92000000,10.35999966,189,255,0,3.000000,8.000000,373170.468750,1.000000
440493.10000183,4464177.84001343,11.14000034,222,255,0,3.000000,8.000000,373170.468750,1.000000
440492.99999573,4464177.84001343,11.69999981,246,255,0,3.000000,24.000000,373170.468750,1.000000
440494.13000061,4464175.72999756,11.43999958,235,255,0,3.000000,22.000000,373170.687500,1.000000
440491.50999023,4464177.50999634,11.64000034,244,255,0,3.000000,8.000000,373170.687500,1.000000
440493.39998962,4464176.44999878,11.35999966,232,255,0,3.000000,22.000000,373170.781250,1.000000
440494.29999878,4464175.30000488,11.39999962,234,255,0,3.000000,4.000000,373171.093750,1.000000
440494.29999878,4464175.84001343,11.38000011,233,255,0,3.000000,4.000000,373171.093750,1.000000
440494.46999695,4464176.84999268,10.72999954,204,255,0,3.000000,20.000000,373171.093750,1.000000
440494.29999878,4464178.77998535,11.52000046,239,255,0,3.000000,20.000000,373171.093750,1.000000
440493.70998718,4464176.68998901,11.43999958,235,255,0,3.000000,4.000000,373171.187500,1.000000
440493.18999817,4464176.31001465,10.92000008,213,255,0,3.000000,20.000000,373171.281250,1.000000
440493.04999878,4464175.27000610,10.07999992,177,255,0,3.000000,20.000000,373171.375000,1.000000
440492.92998840,4464178.93998901,10.80000019,208,255,0,3.000000,20.000000,373171.375000,1.000000
440493.65999939,4464175.36000244,11.61999989,243,255,0,3.000000,18.000000,373171.687500,1.000000
440493.72999146,4464175.34001343,11.72999954,248,255,0,3.000000,16.000000,373172.281250,1.000000
440491.78998901,4464176.65001099,9.55000019,154,255,0,3.000000,16.000000,373172.687500,1.000000
440494.16999390,4464174.62001221,10.81999969,209,255,0,2.000000,29.000000,373109.125000,1.000000
440493.77999451,4464173.87999146,11.48999977,237,255,0,2.000000,27.000000,373109.531250,1.000000
440494.14998962,4464174.62999146,10.81999969,209,255,0,2.000000,11.000000,373109.625000,1.000000
440494.11999084,4464174.46998779,10.93999958,214,255,0,2.000000,27.000000,373109.625000,1.000000
440494.27999451,4464174.64000122,11.89999962,255,254,0,2.000000,27.000000,373109.750000,1.000000
440494.45998718,4464174.43998901,11.93999958,255,252,0,2.000000,27.000000,373109.843750,1.000000
440493.49000122,4464174.06999390,11.35000038,231,255,0,2.000000,25.000000,373110.031250,1.000000
440492.53998901,4464174.46000854,10.94999981,214,255,0,2.000000,7.000000,373110.250000,1.000000
440493.60000183,4464174.27000610,10.89000034,212,255,0,2.000000,7.000000,373110.625000,1.000000
440493.80999329,4464173.78999512,11.46000004,236,255,0,2.000000,23.000000,373110.750000,1.000000
440493.11999084,4464174.56001465,11.14000034,222,255,0,2.000000,17.000000,373111.937500,1.000000
440493.56998779,4464174.37001221,11.06000042,219,255,0,2.000000,1.000000,373112.031250,1.000000
440493.57999756,4464174.31001465,11.43999958,235,255,0,2.000000,17.000000,373112.031250,1.000000
440493.42998840,4464174.09999268,11.36999989,232,255,0,2.000000,30.000000,373112.343750,1.000000
440493.68999817,4464174.18998901,11.39000034,233,255,0,2.000000,4.000000,373114.843750,1.000000
440493.88000061,4464173.99998657,11.53999996,240,255,0,2.000000,4.000000,373114.937500,1.000000
440494.50999023,4464174.25999634,8.93000031,127,255,0,3.000000,31.000000,373164.875000,1.000000
440494.07999756,4464174.62999146,9.64000034,158,255,0,3.000000,13.000000,373165.468750,1.000000
440494.07999756,4464174.34999268,8.97000027,129,255,0,3.000000,9.000000,373166.187500,1.000000
440494.06998779,4464174.52000610,9.09000015,134,255,0,3.000000,25.000000,373166.187500,1.000000
440494.07999756,4464174.56999390,9.85000038,167,255,0,3.000000,23.000000,373166.562500,1.000000
440493.65999939,4464174.42000000,8.94999981,128,255,0,3.000000,23.000000,373166.875000,1.000000
440493.60999634,4464174.53999512,9.77000046,163,255,0,3.000000,5.000000,373167.062500,1.000000
440493.65999939,4464174.44999878,9.82999992,166,255,0,3.000000,21.000000,373167.187500,1.000000
440494.15999939,4464174.43998901,9.18999958,139,255,0,3.000000,19.000000,373167.687500,1.000000
440494.22999146,4464174.12999146,9.01000023,131,255,0,3.000000,17.000000,373168.187500,1.000000
440494.14998962,4464174.64000122,10.00000000,174,255,0,3.000000,1.000000,373168.187500,1.000000
440494.10999634,4464174.61000244,10.67000008,202,255,0,3.000000,17.000000,373168.187500,1.000000
440494.27000000,4464174.30000488,9.02999973,132,255,0,3.000000,14.000000,373168.562500,1.000000
440494.18999817,4464174.50999634,9.94999981,171,255,0,3.000000,14.000000,373168.562500,1.000000
440494.17998840,4464174.59001343,11.09000015,220,255,0,3.000000,28.000000,373168.968750,1.000000
440493.95998718,4464174.55000488,9.82999992,166,255,0,3.000000,12.000000,373169.062500,1.000000
440494.49999573,4464173.99998657,11.46000004,236,255,0,3.000000,24.000000,373169.968750,1.000000
440494.53998901,4464174.14000122,9.06000042,133,255,0,3.000000,24.000000,373170.062500,1.000000
