//X,Y,Z,R,G,B,Point Source ID,User Data,Time,Intensity,Classification
440454.04999878,4464022.60000031,10.89999962,212,255,0,5.000000,20.000000,373305.156250,1.000000,1.000000
440454.04999878,4464022.80999939,10.65999985,201,255,0,5.000000,20.000000,373305.156250,1.000000,1.000000
440453.96999695,4464023.18999664,10.52999973,196,255,0,5.000000,20.000000,373305.156250,0.000000,1.000000
440453.89998962,4464023.47000305,10.56999969,198,255,0,5.000000,4.000000,373305.156250,1.000000,1.000000
440453.90999939,4464023.76999847,10.21000004,183,255,0,5.000000,20.000000,373305.156250,0.000000,1.000000
440453.88000061,4464023.97999756,10.17000008,180,255,0,5.000000,4.000000,373305.156250,1.000000,1.000000
440453.85000183,4464024.12999908,10.56000042,198,255,0,5.000000,20.000000,373305.156250,0.000000,1.000000
440453.71999695,4464024.51999847,10.73999977,205,255,0,5.000000,4.000000,373305.156250,0.000000,1.000000
440453.75999023,4464024.54999725,10.55000019,197,255,0,5.000000,20.000000,373305.156250,0.000000,1.000000
440455.17998840,4464020.75000183,10.77000046,207,255,0,5.000000,18.000000,373305.250000,1.000000,1.000000
440455.15999939,4464020.90999786,10.65999985,201,255,0,5.000000,2.000000,373305.250000,1.000000,1.000000
440453.57999756,4464020.64000122,10.63000011,201,255,0,5.000000,20.000000,373305.250000,0.000000,1.000000
440453.52000000,4464020.89000122,10.65999985,201,255,0,5.000000,4.000000,373305.250000,0.000000,1.000000
440453.52000000,4464020.98999969,10.56999969,198,255,0,5.000000,20.000000,373305.250000,0.000000,1.000000
440453.77000000,4464021.25000183,9.93999958,171,255,0,5.000000,4.000000,373305.250000,1.000000,1.000000
440455.15999939,4464022.08999817,10.73999977,205,255,0,5.000000,18.000000,373305.250000,1.000000,1.000000
440453.75999023,4464021.35000031,9.85000038,167,255,0,5.000000,20.000000,373305.250000,0.000000,1.000000
440453.68999817,4464021.73999969,9.80000019,165,255,0,5.000000,20.000000,373305.250000,0.000000,1.000000
440453.60999634,4464022.03000061,10.35000038,189,255,0,5.000000,4.000000,373305.250000,0.000000,1.000000
440455.13999512,4464022.75000183,10.22000027,183,255,0,5.000000,2.000000,373305.250000,1.000000,1.000000
440453.56998779,4464022.33999817,10.22000027,183,255,0,5.000000,4.000000,373305.250000,1.000000,1.000000
440453.44999268,4464022.68000214,10.46000004,193,255,0,5.000000,20.000000,373305.250000,0.000000,1.000000
440453.41999390,4464022.89000122,10.40999985,191,255,0,5.000000,4.000000,373305.250000,0.000000,1.000000
440453.33999207,4464023.12999908,10.65999985,201,255,0,5.000000,20.000000,373305.250000,1.000000,1.000000
440455.03998901,4464023.97000305,9.92000008,170,255,0,5.000000,18.000000,373305.250000,1.000000,1.000000
440453.24000122,4464024.17000000,10.39000034,190,255,0,5.000000,4.000000,373305.250000,1.000000,1.000000
440453.11999084,4464021.15000336,9.93999958,171,255,0,5.000000,4.000000,373305.343750,1.000000,1.000000
440453.10000183,4464021.25999634,9.86999989,168,255,0,5.000000,20.000000,373305.343750,0.000000,1.000000
440452.88000061,4464022.65000336,9.98999977,173,255,0,5.000000,20.000000,373305.343750,0.000000,1.000000
440454.08999207,4464024.75000183,10.67000008,202,255,0,5.000000,2.000000,373305.343750,1.000000,1.000000
440454.04999878,4464021.73999969,10.07999992,177,255,0,5.000000,2.000000,373305.437500,1.000000,1.000000
440453.60999634,4464023.65999786,10.65999985,201,255,0,5.000000,2.000000,373305.468750,1.000000,1.000000
440453.54999878,4464023.86999695,10.72000027,204,255,0,5.000000,18.000000,373305.468750,1.000000,1.000000
440455.50999023,4464023.73999969,9.93000031,171,255,0,5.000000,0.000000,373305.468750,0.000000,1.000000
440455.07999756,4464020.87999908,10.77000046,207,255,0,5.000000,16.000000,373305.562500,0.000000,1.000000
440453.49999573,4464020.58999817,10.64999962,201,255,0,5.000000,2.000000,373305.562500,1.000000,1.000000
440453.77999451,4464021.04999725,9.85999966,168,255,0,5.000000,18.000000,373305.562500,1.000000,1.000000
440455.18999817,4464021.93999664,10.35999966,189,255,0,5.000000,0.000000,373305.562500,0.000000,1.000000
440453.63999512,4464021.65999786,9.76000023,163,255,0,5.000000,2.000000,373305.562500,1.000000,1.000000
440453.57999756,4464021.87999908,9.81999969,166,255,0,5.000000,18.000000,373305.562500,1.000000,1.000000
440453.49999573,4464022.25999634,10.27000046,185,255,0,5.000000,18.000000,373305.562500,1.000000,1.000000
440454.97999146,4464022.98999969,10.38000011,189,255,0,5.000000,0.000000,373305.562500,0.000000,1.000000
440453.29999878,4464022.85000031,10.53999996,197,255,0,5.000000,18.000000,373305.562500,1.000000,1.000000
440453.22999146,4464023.21000092,10.60999966,200,255,0,5.000000,18.000000,373305.562500,1.000000,1.000000
440451.63999512,4464022.97999756,9.93000031,171,255,0,5.000000,4.000000,373305.562500,0.000000,1.000000
440454.53998901,4464020.96000092,10.88000011,211,255,0,5.000000,0.000000,373305.656250,0.000000,1.000000
440453.19999268,4464021.25000183,9.88000011,169,255,0,5.000000,18.000000,373305.656250,1.000000,1.000000
440454.75999023,4464022.22999756,10.56999969,198,255,0,5.000000,16.000000,373305.656250,0.000000,1.000000
440454.66999390,4464022.51999847,10.61999989,200,255,0,5.000000,0.000000,373305.656250,0.000000,1.000000
440452.97999146,4464022.58999817,9.92000008,170,255,0,5.000000,18.000000,373305.656250,1.000000,1.000000
440451.16999390,4464022.76999847,9.94999981,171,255,0,5.000000,4.000000,373305.656250,0.000000,1.000000
440451.14998962,4464022.90999786,9.90999985,169,255,0,5.000000,20.000000,373305.656250,0.000000,1.000000
440454.27999451,4464024.30999939,10.60999966,200,255,0,5.000000,0.000000,373305.656250,0.000000,1.000000
440454.15999939,4464024.58999817,10.78999996,207,255,0,5.000000,16.000000,373305.656250,1.000000,1.000000
440454.10999634,4464024.90000336,10.67000008,202,255,0,5.000000,16.000000,373305.656250,0.000000,1.000000
440454.22999146,4464020.89000122,10.14999962,180,255,0,5.000000,0.000000,373305.750000,0.000000,1.000000
440454.43999817,4464021.47000305,9.96000004,171,255,0,5.000000,0.000000,373305.750000,0.000000,1.000000
440454.27999451,4464021.82000153,10.19999981,182,255,0,5.000000,16.000000,373305.750000,0.000000,1.000000
440454.35000183,4464021.85000031,9.90999985,169,255,0,5.000000,0.000000,373305.750000,0.000000,1.000000
440454.13000061,4464022.67000000,10.63000011,201,255,0,5.000000,0.000000,373305.750000,0.000000,1.000000
440454.00999023,4464023.08999817,10.56999969,198,255,0,5.000000,0.000000,373305.750000,0.000000,1.000000
440453.89998962,4464023.50999634,10.57999992,198,255,0,5.000000,0.000000,373305.750000,0.000000,1.000000
440453.82999756,4464023.71000092,10.64000034,201,255,0,5.000000,16.000000,373305.750000,0.000000,1.000000
440453.79999878,4464023.90000336,10.56000042,198,255,0,5.000000,0.000000,373305.750000,0.000000,1.000000
440453.92998840,4464023.78000061,10.17000008,180,255,0,5.000000,16.000000,373305.750000,0.000000,1.000000
440453.90999939,4464023.94999878,10.06999969,177,255,0,5.000000,0.000000,373305.750000,0.000000,1.000000
440453.72999146,4464020.69999878,10.61999989,200,255,0,5.000000,0.000000,373305.843750,1.000000,1.000000
440453.99999573,4464021.25000183,9.84000015,166,255,0,5.000000,16.000000,373305.843750,0.000000,1.000000
440453.71999695,4464021.96000092,10.31000042,186,255,0,5.000000,16.000000,373305.843750,0.000000,1.000000
440453.82999756,4464022.00000183,10.46000004,193,255,0,5.000000,16.000000,373305.843750,0.000000,1.000000
440453.74000122,4464022.29000275,10.35999966,189,255,0,5.000000,0.000000,373305.843750,0.000000,1.000000
440453.72999146,4464022.40999786,10.28999996,186,255,0,5.000000,16.000000,373305.843750,0.000000,1.000000
440453.49999573,4464023.01999847,10.72000027,204,255,0,5.000000,16.000000,373305.843750,0.000000,1.000000
440453.43999817,4464023.25999634,10.71000004,204,255,0,5.000000,0.000000,373305.843750,1.000000,1.000000
440453.38999512,4464023.43000214,10.72000027,204,255,0,5.000000,16.000000,373305.843750,0.000000,1.000000
440453.33999207,4464024.19999878,10.39000034,190,255,0,5.000000,16.000000,373305.843750,0.000000,1.000000
440453.60999634,4464021.17000000,10.00000000,174,255,0,5.000000,0.000000,373305.937500,0.000000,1.000000
440453.60999634,4464021.26999847,9.90999985,169,255,0,5.000000,16.000000,373305.937500,0.000000,1.000000
440453.55999329,4464021.47999756,9.88000011,169,255,0,5.000000,0.000000,373305.937500,0.000000,1.000000
440453.46999695,4464021.86000244,9.82999992,166,255,0,5.000000,0.000000,373305.937500,0.000000,1.000000
440453.52000000,4464022.04000275,9.97999954,172,255,0,5.000000,0.000000,373305.937500,0.000000,1.000000
440453.18999817,4464023.14000122,10.28999996,186,255,0,5.000000,16.000000,373305.937500,0.000000,1.000000
440453.24000122,4464021.14000122,9.96000004,171,255,0,5.000000,0.000000,373306.062500,0.000000,1.000000
440453.19999268,4464021.29999725,9.94999981,171,255,0,5.000000,16.000000,373306.062500,0.000000,1.000000
440453.13999512,4464021.54999725,9.93999958,171,255,0,5.000000,0.000000,373306.062500,0.000000,1.000000
440453.13999512,4464021.64000122,9.84000015,166,255,0,5.000000,16.000000,373306.062500,0.000000,1.000000
440453.02000000,4464022.47000305,9.98999977,173,255,0,5.000000,0.000000,373306.062500,0.000000,1.000000
440453.55999329,4464024.93999664,10.75000000,206,255,0,6.000000,15.000000,373355.375000,0.000000,1.000000
440453.56998779,4464024.90000336,10.59000015,198,255,0,6.000000,31.000000,373355.375000,0.000000,1.000000
440453.53998901,4464024.75000183,10.47000027,194,255,0,6.000000,15.000000,373355.375000,0.000000,1.000000
440453.44999268,4464024.51999847,10.59000015,198,255,0,6.000000,31.000000,373355.375000,0.000000,1.000000
440453.20998718,4464023.83000366,10.46000004,193,255,0,6.000000,15.000000,373355.375000,0.000000,1.000000
440453.08999207,4464023.55999939,10.64999962,201,255,0,6.000000,31.000000,373355.375000,0.000000,1.000000
440453.03998901,4464023.37999908,10.59000015,198,255,0,6.000000,15.000000,373355.375000,0.000000,1.000000
440452.94999268,4464023.03000061,10.56999969,198,255,0,6.000000,15.000000,373355.375000,0.000000,1.000000
440452.85000183,4464022.48999969,9.92000008,170,255,0,6.000000,31.000000,373355.375000,0.000000,1.000000
440454.20998718,4464024.40000336,10.50000000,195,255,0,6.000000,31.000000,373355.500000,0.000000,1.000000
440453.82999756,4464023.42000000,10.47000027,194,255,0,6.000000,31.000000,373355.500000,0.000000,1.000000
440453.78998901,4464023.22000305,10.43000031,192,255,0,6.000000,15.000000,373355.500000,0.000000,1.000000
440453.52999451,4464022.40000336,10.31999969,187,255,0,6.000000,31.000000,373355.500000,0.000000,1.000000
440453.33999207,4464021.75000183,9.73999977,163,255,0,6.000000,31.000000,373355.500000,0.000000,1.000000
440453.24000122,4464021.47000305,9.81000042,166,255,0,6.000000,15.000000,373355.500000,0.000000,1.000000
440453.13999512,4464021.12999908,9.84000015,166,255,0,6.000000,15.000000,373355.500000,0.000000,1.000000
440453.16999390,4464021.11000244,9.64000034,158,255,0,6.000000,31.000000,373355.500000,0.000000,1.000000
440453.38000061,4464024.50999634,10.55000019,197,255,0,6.000000,29.000000,373355.593750,1.000000,1.000000
440453.13999512,4464023.86999695,10.65999985,201,255,0,6.000000,29.000000,373355.593750,0.000000,1.000000
440453.21999695,4464023.92000000,10.22999954,183,255,0,6.000000,13.000000,373355.593750,1.000000,1.000000
440453.02999451,4464023.48999969,10.68999958,203,255,0,6.000000,29.000000,373355.593750,1.000000,1.000000
440452.99000122,4464023.32000153,10.60999966,200,255,0,6.000000,13.000000,373355.593750,1.000000,1.000000
440452.97999146,4464023.21000092,10.55000019,197,255,0,6.000000,29.000000,373355.593750,1.000000,1.000000
440452.90999939,4464022.98999969,10.40999985,191,255,0,6.000000,13.000000,373355.593750,0.000000,1.000000
440453.02999451,4464023.15999786,10.06000042,176,255,0,6.000000,29.000000,373355.593750,0.000000,1.000000
440452.86999084,4464022.60000031,9.89999962,169,255,0,6.000000,13.000000,373355.593750,0.000000,1.000000
440453.66999390,4464020.89000122,10.51000023,195,255,0,6.000000,31.000000,373355.593750,0.000000,1.000000
440453.58999207,4464020.65000336,10.57999992,198,255,0,6.000000,15.000000,373355.593750,0.000000,1.000000
440454.13999512,4464021.40999786,9.55000019,154,255,0,6.000000,15.000000,373355.593750,0.000000,1.000000
440454.10000183,4464024.36000244,10.52999973,196,255,0,6.000000,29.000000,373355.687500,1.000000,1.000000
440453.65999939,4464023.01999847,10.59000015,198,255,0,6.000000,29.000000,373355.687500,1.000000,1.000000
440454.28998901,4464020.94999878,10.89000034,212,255,0,6.000000,31.000000,373355.687500,0.000000,1.000000
440454.27000000,4464020.82000153,10.78999996,207,255,0,6.000000,15.000000,373355.687500,0.000000,1.000000
440453.46999695,4464022.22999756,10.22999954,183,255,0,6.000000,13.000000,373355.687500,0.000000,1.000000
440454.45998718,4464020.96000092,10.01000023,174,255,0,6.000000,15.000000,373355.687500,0.000000,1.000000
440454.44999268,4464020.86999695,9.93000031,171,255,0,6.000000,31.000000,373355.687500,0.000000,1.000000
440453.35999634,4464021.86000244,9.75000000,163,255,0,6.000000,13.000000,373355.687500,1.000000,1.000000
440454.24999573,4464020.46000092,10.30000019,186,255,0,6.000000,15.000000,373355.687500,0.000000,1.000000
440453.30999329,4464021.71000092,9.77999973,164,255,0,6.000000,29.000000,373355.687500,1.000000,1.000000
440453.21999695,4464021.43999664,9.85999966,168,255,0,6.000000,13.000000,373355.687500,1.000000,1.000000
440454.77000000,4464021.04999725,9.68000031,160,255,0,6.000000,31.000000,373355.687500,0.000000,1.000000
440453.13000061,4464021.08999817,9.85999966,168,255,0,6.000000,13.000000,373355.687500,1.000000,1.000000
440453.13000061,4464021.03000061,9.72999954,162,255,0,6.000000,29.000000,373355.687500,0.000000,1.000000
440454.74000122,4464020.72999756,10.98999977,216,255,0,6.000000,31.000000,373355.781250,0.000000,1.000000
440454.82999756,4464020.79999725,10.50000000,195,255,0,6.000000,15.000000,373355.781250,0.000000,1.000000
440455.17998840,4464021.15999786,10.48999977,195,255,0,6.000000,15.000000,373355.781250,0.000000,1.000000
440452.42998840,4464022.40000336,10.05000019,175,255,0,6.000000,27.000000,373355.781250,1.000000,1.000000
440453.24000122,4464020.60000031,10.64999962,201,255,0,6.000000,13.000000,373355.781250,1.000000,1.000000
440453.80999329,4464021.58000366,9.61999989,157,255,0,6.000000,29.000000,373355.781250,0.000000,1.000000
440455.32999756,4464021.18999664,9.64000034,158,255,0,6.000000,31.000000,373355.781250,0.000000,1.000000
440453.71999695,4464021.33000366,9.77999973,164,255,0,6.000000,13.000000,373355.781250,1.000000,1.000000
440453.68999817,4464021.07000153,9.64000034,158,255,0,6.000000,13.000000,373355.781250,0.000000,1.000000
440453.53998901,4464024.44999878,10.61999989,200,255,0,6.000000,11.000000,373355.875000,1.000000,1.000000
440453.54999878,4464024.40999786,10.44999981,192,255,0,6.000000,27.000000,373355.875000,0.000000,1.000000
440453.33999207,4464023.83999817,10.68000031,203,255,0,6.000000,11.000000,373355.875000,1.000000,1.000000
440453.39998962,4464023.83999817,10.13000011,179,255,0,6.000000,11.000000,373355.875000,0.000000,1.000000
440453.20998718,4464023.36000244,10.63000011,201,255,0,6.000000,27.000000,373355.875000,1.000000,1.000000
440453.18999817,4464023.18999664,10.52999973,196,255,0,6.000000,11.000000,373355.875000,1.000000,1.000000
440453.14998962,4464023.04000275,10.52999973,196,255,0,6.000000,27.000000,373355.875000,0.000000,1.000000
440453.05999329,4464022.61999695,10.17000008,180,255,0,6.000000,11.000000,373355.875000,1.000000,1.000000
440453.80999329,4464020.79999725,10.82999992,209,255,0,6.000000,13.000000,373355.875000,1.000000,1.000000
440452.99000122,4464022.32000153,10.07999992,177,255,0,6.000000,11.000000,373355.875000,0.000000,1.000000
440453.78998901,4464020.61000244,10.60000038,199,255,0,6.000000,13.000000,373355.875000,1.000000,1.000000
440453.86999084,4464020.69999878,10.22999954,183,255,0,6.000000,29.000000,373355.875000,1.000000,1.000000
440455.72999146,4464020.98999969,9.17000008,138,255,0,6.000000,31.000000,373355.875000,0.000000,1.000000
440455.74999573,4464020.90999786,8.96000004,129,255,0,6.000000,15.000000,373355.875000,0.000000,1.000000
440453.83999207,4464020.47999756,10.02000046,174,255,0,6.000000,29.000000,373355.875000,1.000000,1.000000
440455.63000061,4464020.64000122,9.17000008,138,255,0,6.000000,31.000000,373355.875000,0.000000,1.000000
440452.67998840,4464021.29000275,9.30000019,143,255,0,6.000000,27.000000,373355.875000,0.000000,1.000000
440452.65999939,4464021.15000336,9.18000031,139,255,0,6.000000,11.000000,373355.875000,0.000000,1.000000
440454.07999756,4464024.35000031,10.48999977,195,255,0,6.000000,11.000000,373356.000000,1.000000,1.000000
440453.71999695,4464023.21000092,10.53999996,197,255,0,6.000000,27.000000,373356.000000,0.000000,1.000000
440453.66999390,4464022.97000305,10.42000008,192,255,0,6.000000,11.000000,373356.000000,1.000000,1.000000
440453.64998962,4464022.86999695,10.35999966,189,255,0,6.000000,27.000000,373356.000000,0.000000,1.000000
440454.36999084,4464020.82000153,10.81000042,208,255,0,6.000000,29.000000,373356.000000,1.000000,1.000000
440453.42998840,4464022.00999634,10.26000023,185,255,0,6.000000,11.000000,373356.000000,0.000000,1.000000
440454.47999146,4464020.78000061,10.01000023,174,255,0,6.000000,13.000000,373356.000000,1.000000,1.000000
440453.39998962,4464021.87999908,9.75000000,163,255,0,6.000000,27.000000,373356.000000,0.000000,1.000000
440454.35000183,4464020.47999756,10.27999973,186,255,0,6.000000,29.000000,373356.000000,1.000000,1.000000
440454.35999634,4464020.40999786,10.07999992,177,255,0,6.000000,13.000000,373356.000000,0.000000,1.000000
440453.21999695,4464021.25000183,9.84000015,166,255,0,6.000000,11.000000,373356.000000,1.000000,1.000000
440453.18999817,4464021.11999695,9.82999992,166,255,0,6.000000,27.000000,373356.000000,1.000000,1.000000
440453.17998840,4464021.00999634,9.68000031,160,255,0,6.000000,11.000000,373356.000000,0.000000,1.000000
440454.79999878,4464020.72000305,11.09000015,220,255,0,6.000000,29.000000,373356.093750,1.000000,1.000000
440454.94999268,4464020.86999695,10.32999992,188,255,0,6.000000,29.000000,373356.093750,0.000000,1.000000
440452.49000122,4464022.51999847,10.00000000,174,255,0,6.000000,25.000000,373356.093750,0.000000,1.000000
440453.45998718,4464020.97000305,10.51000023,195,255,0,6.000000,27.000000,373356.093750,1.000000,1.000000
440455.16999390,4464021.10000031,10.52999973,196,255,0,6.000000,29.000000,373356.093750,1.000000,1.000000
440455.35000183,4464021.28000061,9.64999962,158,255,0,6.000000,29.000000,373356.093750,0.000000,1.000000
440453.80999329,4464021.47999756,9.57999992,155,255,0,6.000000,11.000000,373356.093750,0.000000,1.000000
440455.27000000,4464021.01999847,9.75000000,163,255,0,6.000000,13.000000,373356.093750,0.000000,1.000000
440453.74999573,4464021.29000275,9.75000000,163,255,0,6.000000,27.000000,373356.093750,1.000000,1.000000
440453.71999695,4464021.12999908,9.68000031,160,255,0,6.000000,11.000000,373356.093750,1.000000,1.000000
440453.42998840,4464024.50999634,10.52000046,195,255,0,6.000000,9.000000,373356.187500,0.000000,1.000000
440453.24000122,4464023.89000122,10.63000011,201,255,0,6.000000,9.000000,373356.187500,0.000000,1.000000
440453.27000000,4464023.92000000,10.35000038,189,255,0,6.000000,25.000000,373356.187500,0.000000,1.000000
440453.13000061,4464023.46000092,10.69999981,204,255,0,6.000000,9.000000,373356.187500,0.000000,1.000000
440453.10999634,4464023.36999695,10.60999966,200,255,0,6.000000,25.000000,373356.187500,0.000000,1.000000
440453.07999756,4464023.21000092,10.52000046,195,255,0,6.000000,9.000000,373356.187500,0.000000,1.000000
440453.02000000,4464023.00000183,10.61999989,200,255,0,6.000000,25.000000,373356.187500,0.000000,1.000000
440453.80999329,4464020.79000275,10.82999992,209,255,0,6.000000,11.000000,373356.187500,1.000000,1.000000
440455.77999451,4464021.46000092,10.35000038,189,255,0,6.000000,13.000000,373356.187500,1.000000,1.000000
440452.90999939,4464022.42000000,10.23999977,183,255,0,6.000000,25.000000,373356.187500,0.000000,1.000000
440453.82999756,4464020.78000061,10.64000034,201,255,0,6.000000,27.000000,373356.187500,1.000000,1.000000
440455.71999695,4464021.26999847,10.40999985,191,255,0,6.000000,29.000000,373356.187500,1.000000,1.000000
440452.91999390,4464022.35000031,10.00000000,174,255,0,6.000000,9.000000,373356.187500,0.000000,1.000000
440455.67998840,4464021.11000244,10.35999966,189,255,0,6.000000,13.000000,373356.187500,1.000000,1.000000
440455.64998962,4464020.90000336,8.98999977,130,255,0,6.000000,13.000000,373356.187500,1.000000,1.000000
440453.82999756,4464020.47999756,10.02000046,174,255,0,6.000000,27.000000,373356.187500,1.000000,1.000000
440455.54999878,4464020.60000031,9.23999977,141,255,0,6.000000,29.000000,373356.187500,1.000000,1.000000
440454.20998718,4464021.22000305,9.61999989,157,255,0,6.000000,11.000000,373356.187500,0.000000,1.000000
440454.20998718,4464021.05999939,9.31000042,144,255,0,6.000000,11.000000,373356.187500,0.000000,1.000000
440453.91999390,4464024.90999786,10.73999977,205,255,0,6.000000,9.000000,373356.281250,0.000000,1.000000
440453.89998962,4464024.79999725,10.65999985,201,255,0,6.000000,25.000000,373356.281250,0.000000,1.000000
440453.85999634,4464024.58999817,10.64999962,201,255,0,6.000000,9.000000,373356.281250,0.000000,1.000000
440453.78998901,4464024.29000275,10.53999996,197,255,0,6.000000,9.000000,373356.281250,0.000000,1.000000
440453.47999146,4464023.15000336,10.61999989,200,255,0,6.000000,25.000000,373356.281250,0.000000,1.000000
440454.24999573,4464020.86000244,10.90999985,213,255,0,6.000000,11.000000,373356.281250,0.000000,1.000000
440453.31998779,4464022.30999939,10.10000038,177,255,0,6.000000,25.000000,373356.281250,0.000000,1.000000
440454.35999634,4464020.90999786,10.09000015,177,255,0,6.000000,27.000000,373356.281250,1.000000,1.000000
440454.35000183,4464020.79999725,9.93999958,171,255,0,6.000000,11.000000,373356.281250,0.000000,1.000000
440454.21999695,4464020.47000305,10.27000046,185,255,0,6.000000,27.000000,373356.281250,1.000000,1.000000
440453.08999207,4464021.50999634,9.97000027,172,255,0,6.000000,9.000000,373356.281250,0.000000,1.000000
440454.60999634,4464021.23999969,9.84000015,166,255,0,6.000000,11.000000,373356.281250,0.000000,1.000000
440453.10000183,4464021.48999969,9.76000023,163,255,0,6.000000,25.000000,373356.281250,0.000000,1.000000
440453.02999451,4464021.18000214,9.69999981,160,255,0,6.000000,25.000000,373356.281250,0.000000,1.000000
440454.64998962,4464020.75999634,11.11999989,222,255,0,6.000000,27.000000,373356.375000,1.000000,1.000000
440454.69999268,4464020.79000275,10.75000000,206,255,0,6.000000,11.000000,373356.375000,1.000000,1.000000
440454.90999939,4464021.21000092,10.92000008,213,255,0,6.000000,27.000000,373356.375000,0.000000,1.000000
440453.64998962,4464021.96000092,10.05000019,175,255,0,6.000000,9.000000,373356.375000,0.000000,1.000000
440453.27000000,4464020.90000336,10.60999966,200,255,0,6.000000,25.000000,373356.375000,0.000000,1.000000
440454.92998840,4464021.07000153,10.59000015,198,255,0,6.000000,27.000000,373356.375000,0.000000,1.000000
440454.88000061,4464020.86000244,9.46000004,151,255,0,6.000000,11.000000,373356.375000,1.000000,1.000000
440453.60999634,4464021.69999878,9.68000031,160,255,0,6.000000,25.000000,373356.375000,0.000000,1.000000
440454.85000183,4464020.73999969,9.40999985,148,255,0,6.000000,27.000000,373356.375000,0.000000,1.000000
440453.52000000,4464021.39000122,9.85999966,168,255,0,6.000000,9.000000,373356.375000,0.000000,1.000000
440455.04999878,4464021.12999908,9.59000015,156,255,0,6.000000,11.000000,373356.375000,0.000000,1.000000
440452.72999146,4464023.12999908,10.43000031,192,255,0,6.000000,7.000000,373356.500000,0.000000,1.000000
440455.35999634,4464021.30999939,10.67000008,202,255,0,6.000000,11.000000,373356.500000,1.000000,1.000000
440455.44999268,4464021.47000305,10.18999958,181,255,0,6.000000,27.000000,373356.500000,0.000000,1.000000
440453.64998962,4464020.87999908,10.56000042,198,255,0,6.000000,9.000000,373356.500000,0.000000,1.000000
440453.60999634,4464020.72999756,10.60000038,199,255,0,6.000000,25.000000,373356.500000,0.000000,1.000000
440455.27000000,4464020.87999908,9.43999958,149,255,0,6.000000,27.000000,373356.500000,1.000000,1.000000
440455.25999023,4464020.73999969,9.35000038,145,255,0,6.000000,11.000000,373356.500000,0.000000,1.000000
440453.88000061,4464021.25000183,9.68000031,160,255,0,6.000000,9.000000,373356.500000,0.000000,1.000000
440453.88000061,4464021.18000214,9.55000019,154,255,0,6.000000,25.000000,373356.500000,0.000000,1.000000
440453.65999939,4464024.92000000,10.80000019,208,255,0,6.000000,7.000000,373356.593750,0.000000,1.000000
440453.57999756,4464024.57000153,10.76000023,206,255,0,6.000000,7.000000,373356.593750,0.000000,1.000000
440453.56998779,4464024.48999969,10.65999985,201,255,0,6.000000,23.000000,373356.593750,0.000000,1.000000
440453.55999329,4464024.39000122,10.46000004,193,255,0,6.000000,7.000000,373356.593750,0.000000,1.000000
440453.29999878,4464023.36000244,10.61999989,200,255,0,6.000000,7.000000,373356.593750,0.000000,1.000000
440453.25999023,4464023.18000214,10.67000008,202,255,0,6.000000,23.000000,373356.593750,1.000000,1.000000
440453.24000122,4464023.05999939,10.52000046,195,255,0,6.000000,7.000000,373356.593750,0.000000,1.000000
440454.45998718,4464021.89000122,11.11999989,222,255,0,6.000000,9.000000,373356.593750,0.000000,1.000000
440453.13000061,4464022.46000092,10.18000031,181,255,0,6.000000,7.000000,373356.593750,0.000000,1.000000
440454.14998962,4464020.80999939,10.56999969,198,255,0,6.000000,9.000000,373356.593750,0.000000,1.000000
440454.19999268,4464020.89000122,10.22000027,183,255,0,6.000000,25.000000,373356.593750,0.000000,1.000000
440454.10000183,4464020.44999878,10.07999992,177,255,0,6.000000,9.000000,373356.593750,0.000000,1.000000
440452.90999939,4464021.51999847,9.84000015,166,255,0,6.000000,23.000000,373356.593750,0.000000,1.000000
440454.05999329,4464020.29000275,10.13000011,179,255,0,6.000000,25.000000,373356.593750,0.000000,1.000000
440452.86999084,4464021.33000366,9.81000042,166,255,0,6.000000,7.000000,373356.593750,0.000000,1.000000
440454.38999512,4464021.05999939,9.68999958,160,255,0,6.000000,9.000000,373356.593750,0.000000,1.000000
440452.83999207,4464021.18000214,9.82999992,166,255,0,6.000000,23.000000,373356.593750,0.000000,1.000000
440454.38000061,4464021.00000183,9.56000042,154,255,0,6.000000,25.000000,373356.593750,0.000000,1.000000
440454.07999756,4464025.00999634,11.00000000,216,255,0,6.000000,7.000000,373356.687500,0.000000,1.000000
440454.03998901,4464024.75999634,10.72000027,204,255,0,6.000000,7.000000,373356.687500,0.000000,1.000000
440453.86999084,4464024.08000366,10.96000004,215,255,0,6.000000,23.000000,373356.687500,0.000000,1.000000
440454.54999878,4464020.87999908,10.98999977,216,255,0,6.000000,25.000000,373356.687500,0.000000,1.000000
440454.50999023,4464020.71000092,10.93999958,214,255,0,6.000000,9.000000,373356.687500,0.000000,1.000000
440454.56998779,4464020.83000366,10.55000019,197,255,0,6.000000,25.000000,373356.687500,0.000000,1.000000
440453.42998840,4464022.04999725,10.51000023,195,255,0,6.000000,7.000000,373356.687500,0.000000,1.000000
440454.64998962,4464020.94999878,10.03999996,175,255,0,6.000000,9.000000,373356.687500,0.000000,1.000000
440453.10000183,4464020.87999908,10.73999977,205,255,0,6.000000,23.000000,373356.687500,0.000000,1.000000
440453.06998779,4464020.73999969,10.63000011,201,255,0,6.000000,7.000000,373356.687500,0.000000,1.000000
440454.69999268,4464020.92000000,9.52000046,153,255,0,6.000000,9.000000,373356.687500,0.000000,1.000000
440453.36999084,4464021.71000092,9.76000023,163,255,0,6.000000,23.000000,373356.687500,0.000000,1.000000
440453.30999329,4464021.44999878,9.82999992,166,255,0,6.000000,7.000000,373356.687500,0.000000,1.000000
440453.27000000,4464021.29999725,9.86999989,168,255,0,6.000000,23.000000,373356.687500,0.000000,1.000000
440454.78998901,4464021.04000275,9.59000015,156,255,0,6.000000,25.000000,373356.687500,0.000000,1.000000
440453.21999695,4464021.00000183,9.80000019,165,255,0,6.000000,23.000000,373356.687500,0.000000,1.000000
440451.08999207,4464023.03000061,10.26000023,185,255,0,6.000000,19.000000,373356.781250,0.000000,1.000000
440453.70998718,4464020.94999878,10.52000046,195,255,0,6.000000,7.000000,373356.781250,0.000000,1.000000
440453.66999390,4464020.78000061,10.56000042,198,255,0,6.000000,23.000000,373356.781250,0.000000,1.000000
440455.28998901,4464020.93000214,9.42000008,148,255,0,6.000000,25.000000,373356.781250,0.000000,1.000000
440453.63000061,4464020.60000031,10.56000042,198,255,0,6.000000,7.000000,373356.781250,0.000000,1.000000
440453.61999084,4464020.53000061,10.43999958,192,255,0,6.000000,23.000000,373356.781250,0.000000,1.000000
440455.39998962,4464021.15000336,9.67000008,160,255,0,6.000000,25.000000,373356.781250,0.000000,1.000000
440453.85999634,4464021.19999878,9.61999989,157,255,0,6.000000,23.000000,373356.781250,0.000000,1.000000
440453.63000061,4464024.94999878,10.81999969,209,255,0,6.000000,5.000000,373356.875000,1.000000,1.000000
440453.61999084,4464024.85000031,10.73999977,205,255,0,6.000000,21.000000,373356.875000,1.000000,1.000000
440453.52999451,4464024.42000000,10.48999977,195,255,0,6.000000,5.000000,373356.875000,0.000000,1.000000
440453.32999756,4464023.44999878,10.57999992,198,255,0,6.000000,5.000000,373356.875000,0.000000,1.000000
440453.27999451,4464023.23999969,10.68000031,203,255,0,6.000000,21.000000,373356.875000,1.000000,1.000000
440453.25999023,4464023.11999695,10.52000046,195,255,0,6.000000,5.000000,373356.875000,1.000000,1.000000
440453.13000061,4464022.39000122,10.15999985,180,255,0,6.000000,21.000000,373356.875000,0.000000,1.000000
440454.27999451,4464020.75000183,9.97000027,172,255,0,6.000000,23.000000,373356.875000,0.000000,1.000000
440452.96999695,4464021.62999908,10.00000000,174,255,0,6.000000,5.000000,373356.875000,0.000000,1.000000
440454.18999817,4464020.44999878,10.15999985,180,255,0,6.000000,7.000000,373356.875000,0.000000,1.000000
440452.94999268,4464021.54999725,9.89000034,169,255,0,6.000000,21.000000,373356.875000,1.000000,1.000000
440452.92998840,4464021.39000122,9.81000042,166,255,0,6.000000,5.000000,373356.906250,1.000000,1.000000
440454.41999390,4464021.11999695,9.67000008,160,255,0,6.000000,7.000000,373356.906250,0.000000,1.000000
440454.41999390,4464021.03000061,9.59000015,156,255,0,6.000000,23.000000,373356.906250,0.000000,1.000000
440454.18999817,4464024.40999786,10.52000046,195,255,0,6.000000,21.000000,373357.000000,0.000000,1.000000
440454.89998962,4464020.92000000,10.89000034,212,255,0,6.000000,23.000000,373357.000000,0.000000,1.000000
440455.03998901,4464021.22000305,10.69999981,204,255,0,6.000000,7.000000,373357.000000,0.000000,1.000000
440454.99000122,4464020.92000000,9.47999954,151,255,0,6.000000,7.000000,373357.000000,0.000000,1.000000
440453.38999512,4464020.65000336,10.60000038,199,255,0,6.000000,21.000000,373357.000000,1.000000,1.000000
440453.60999634,4464021.54000275,9.76000023,163,255,0,6.000000,5.000000,373357.000000,0.000000,1.000000
440455.07999756,4464021.17000000,9.67000008,160,255,0,6.000000,7.000000,373357.000000,0.000000,1.000000
440455.06998779,4464021.11000244,9.53999996,154,255,0,6.000000,23.000000,373357.000000,0.000000,1.000000
440453.53998901,4464021.18999664,9.77000046,163,255,0,6.000000,5.000000,373357.000000,0.000000,1.000000
440453.18999817,4464024.55999939,10.39999962,191,255,0,6.000000,19.000000,373357.093750,0.000000,1.000000
440453.11999084,4464024.18999664,10.39000034,190,255,0,6.000000,19.000000,373357.093750,1.000000,1.000000
440453.00999023,4464023.58000366,10.71000004,204,255,0,6.000000,3.000000,373357.093750,0.000000,1.000000
440452.96999695,4464023.29999725,10.56000042,198,255,0,6.000000,3.000000,373357.093750,0.000000,1.000000
440452.93999817,4464023.17000000,10.21000004,183,255,0,6.000000,3.000000,373357.093750,0.000000,1.000000
440455.68999817,4464021.50999634,10.77999973,207,255,0,6.000000,23.000000,373357.093750,0.000000,1.000000
440453.99999573,4464020.86000244,10.86999989,211,255,0,6.000000,5.000000,373357.093750,1.000000,1.000000
440455.66999390,4464021.36999695,10.64999962,201,255,0,6.000000,7.000000,373357.093750,0.000000,1.000000
440455.66999390,4464021.33000366,10.52000046,195,255,0,6.000000,23.000000,373357.093750,0.000000,1.000000
440452.82999756,4464022.51999847,9.96000004,171,255,0,6.000000,3.000000,373357.093750,0.000000,1.000000
440455.64998962,4464021.25000183,10.32999992,188,255,0,6.000000,7.000000,373357.093750,0.000000,1.000000
440454.00999023,4464020.79999725,10.23999977,183,255,0,6.000000,21.000000,373357.093750,1.000000,1.000000
440455.63000061,4464021.15999786,10.26000023,185,255,0,6.000000,23.000000,373357.093750,0.000000,1.000000
440453.97999146,4464020.67000000,10.13000011,179,255,0,6.000000,5.000000,373357.093750,0.000000,1.000000
440455.57999756,4464020.90999786,9.17000008,138,255,0,6.000000,7.000000,373357.093750,0.000000,1.000000
440455.49999573,4464020.54999725,9.18999958,139,255,0,6.000000,7.000000,373357.093750,0.000000,1.000000
440454.13999512,4464021.21000092,9.31000042,144,255,0,6.000000,5.000000,373357.093750,0.000000,1.000000
440455.39998962,4464019.97999756,9.02000046,131,255,0,6.000000,23.000000,373357.093750,0.000000,1.000000
440453.72999146,4464024.71000092,10.63000011,201,255,0,6.000000,3.000000,373357.187500,1.000000,1.000000
440453.70998718,4464024.58000366,10.59000015,198,255,0,6.000000,19.000000,373357.187500,0.000000,1.000000
440453.67998840,4464024.42000000,10.50000000,195,255,0,6.000000,3.000000,373357.187500,0.000000,1.000000
440454.52000000,4464020.94999878,10.97999954,216,255,0,6.000000,5.000000,373357.187500,1.000000,1.000000
440454.49999573,4464020.78000061,10.68999958,203,255,0,6.000000,5.000000,373357.187500,0.000000,1.000000
440453.06998779,4464020.96000092,10.67000008,202,255,0,6.000000,3.000000,373357.187500,0.000000,1.000000
440454.54999878,4464020.86000244,10.02999973,174,255,0,6.000000,5.000000,373357.187500,1.000000,1.000000
440453.04999878,4464020.80999939,10.68000031,203,255,0,6.000000,19.000000,373357.187500,0.000000,1.000000
440454.55999329,4464020.90000336,9.73999977,163,255,0,6.000000,21.000000,373357.187500,0.000000,1.000000
440453.15999939,4464021.53000061,9.90999985,169,255,0,6.000000,19.000000,373357.187500,1.000000,1.000000
440454.65999939,4464021.29999725,9.72999954,162,255,0,6.000000,21.000000,373357.187500,1.000000,1.000000
440453.13000061,4464021.33999817,9.88000011,169,255,0,6.000000,3.000000,373357.187500,1.000000,1.000000
440454.63000061,4464021.08999817,9.72000027,162,255,0,6.000000,5.000000,373357.187500,0.000000,1.000000
440453.10000183,4464021.18000214,9.92000008,170,255,0,6.000000,19.000000,373357.187500,1.000000,1.000000
440453.08999207,4464021.11000244,9.69999981,160,255,0,6.000000,3.000000,373357.187500,0.000000,1.000000
440455.21999695,4464021.21000092,11.02999973,218,255,0,6.000000,21.000000,373357.281250,0.000000,1.000000
440452.42998840,4464022.73999969,10.02000046,174,255,0,6.000000,1.000000,373357.281250,1.000000,1.000000
440455.29999878,4464021.48999969,10.26000023,185,255,0,6.000000,5.000000,373357.281250,0.000000,1.000000
440455.24000122,4464021.14000122,10.61999989,200,255,0,6.000000,21.000000,373357.281250,0.000000,1.000000
440453.66999390,4464020.83999817,10.51000023,195,255,0,6.000000,3.000000,373357.281250,0.000000,1.000000
440455.19999268,4464021.00000183,10.52000046,195,255,0,6.000000,5.000000,373357.281250,0.000000,1.000000
440453.63000061,4464020.65000336,10.60000038,199,255,0,6.000000,19.000000,373357.281250,1.000000,1.000000
440453.60999634,4464020.54999725,10.42000008,192,255,0,6.000000,3.000000,373357.281250,0.000000,1.000000
440455.24000122,4464021.10000031,9.77000046,163,255,0,6.000000,5.000000,373357.281250,0.000000,1.000000
440453.71999695,4464021.19999878,9.72000027,162,255,0,6.000000,3.000000,373357.281250,0.000000,1.000000
440453.14998962,4464024.55999939,10.35000038,189,255,0,6.000000,17.000000,373357.375000,0.000000,1.000000
440453.08999207,4464024.18999664,10.35000038,189,255,0,6.000000,17.000000,373357.406250,1.000000,1.000000
440453.00999023,4464023.53000061,10.72999954,204,255,0,6.000000,1.000000,373357.406250,1.000000,1.000000
440452.99000122,4464023.42000000,10.68000031,203,255,0,6.000000,17.000000,373357.406250,1.000000,1.000000
440452.93999817,4464023.08999817,10.60999966,200,255,0,6.000000,17.000000,373357.406250,0.000000,1.000000
440455.71999695,4464021.47000305,10.81000042,208,255,0,6.000000,21.000000,373357.406250,0.000000,1.000000
440452.74000122,4464021.47000305,11.03999996,218,255,0,6.000000,1.000000,373357.406250,1.000000,1.000000
440454.10999634,4464020.90000336,10.77999973,207,255,0,6.000000,3.000000,373357.406250,1.000000,1.000000
440454.10999634,4464020.86999695,10.61999989,200,255,0,6.000000,19.000000,373357.406250,0.000000,1.000000
440455.69999268,4464021.36999695,10.43999958,192,255,0,6.000000,21.000000,373357.406250,0.000000,1.000000
440452.81998779,4464022.44999878,10.02999973,174,255,0,6.000000,1.000000,373357.406250,1.000000,1.000000
440455.65999939,4464021.19999878,10.39000034,190,255,0,6.000000,5.000000,373357.406250,0.000000,1.000000
440455.64998962,4464021.05999939,10.38000011,189,255,0,6.000000,21.000000,373357.406250,0.000000,1.000000
440454.07999756,4464020.68000214,10.05000019,175,255,0,6.000000,3.000000,373357.406250,0.000000,1.000000
440455.63999512,4464021.00000183,10.14000034,180,255,0,6.000000,5.000000,373357.406250,0.000000,1.000000
440454.05999329,4464020.54999725,10.05000019,175,255,0,6.000000,19.000000,373357.406250,1.000000,1.000000
440455.56998779,4464020.68999664,9.27999973,142,255,0,6.000000,21.000000,373357.406250,1.000000,1.000000
440452.64998962,4464021.36000244,9.32999992,145,255,0,6.000000,17.000000,373357.406250,0.000000,1.000000
440452.63000061,4464021.19999878,9.27000046,142,255,0,6.000000,1.000000,373357.406250,1.000000,1.000000
440454.14998962,4464021.18000214,9.34000015,145,255,0,6.000000,3.000000,373357.406250,0.000000,1.000000
440453.77999451,4464024.75999634,10.69999981,204,255,0,6.000000,17.000000,373357.500000,1.000000,1.000000
440453.74999573,4464024.65000336,10.52999973,196,255,0,6.000000,1.000000,373357.500000,1.000000,1.000000
440453.71999695,4464024.47000305,10.56000042,198,255,0,6.000000,17.000000,373357.500000,1.000000,1.000000
440453.52999451,4464023.18999664,10.76000023,206,255,0,6.000000,1.000000,373357.500000,0.000000,1.000000
440454.65999939,4464020.73999969,11.10000038,221,255,0,6.000000,3.000000,373357.500000,1.000000,1.000000
440453.38000061,4464022.29999725,10.31999969,187,255,0,6.000000,1.000000,373357.500000,0.000000,1.000000
440454.77999451,4464021.37999908,10.76000023,206,255,0,6.000000,3.000000,373357.500000,0.000000,1.000000
440453.36999084,4464022.18999664,10.27000046,185,255,0,6.000000,17.000000,373357.500000,0.000000,1.000000
440454.69999268,4464020.92000000,10.06000042,176,255,0,6.000000,19.000000,373357.500000,0.000000,1.000000
440454.64998962,4464020.68000214,10.14000034,180,255,0,6.000000,3.000000,373357.500000,1.000000,1.000000
440454.69999268,4464020.86000244,9.61999989,157,255,0,6.000000,19.000000,373357.500000,1.000000,1.000000
440453.27000000,4464021.58000366,9.86999989,168,255,0,6.000000,1.000000,373357.500000,1.000000,1.000000
440453.24000122,4464021.39000122,9.93999958,171,255,0,6.000000,17.000000,373357.500000,1.000000,1.000000
440454.72999146,4464021.17000000,9.75000000,163,255,0,6.000000,19.000000,373357.500000,1.000000,1.000000
440453.21999695,4464021.22000305,9.86999989,168,255,0,6.000000,1.000000,373357.500000,1.000000,1.000000
440453.19999268,4464021.10000031,9.85000038,167,255,0,6.000000,17.000000,373357.500000,1.000000,1.000000
440453.95998718,4464020.97000305,10.94999981,214,255,0,6.000000,17.000000,373357.593750,1.000000,1.000000
440455.52000000,4464021.57000153,10.65999985,201,255,0,6.000000,19.000000,373357.593750,0.000000,1.000000
440452.53998901,4464021.47999756,11.09000015,220,255,0,6.000000,30.000000,373357.593750,0.000000,1.000000
440453.92998840,4464020.86999695,10.77999973,207,255,0,6.000000,1.000000,373357.593750,1.000000,1.000000
440451.06998779,4464022.98999969,9.94999981,171,255,0,6.000000,12.000000,373357.593750,1.000000,1.000000
440455.44999268,4464021.29000275,10.52999973,196,255,0,6.000000,19.000000,373357.593750,0.000000,1.000000
440451.04999878,4464022.86999695,9.89999962,169,255,0,6.000000,28.000000,373357.593750,1.000000,1.000000
440453.91999390,4464020.83999817,10.30000019,186,255,0,6.000000,1.000000,373357.593750,1.000000,1.000000
440455.43999817,4464021.04999725,10.59000015,198,255,0,6.000000,3.000000,373357.593750,0.000000,1.000000
440452.53998901,4464022.36999695,10.01000023,174,255,0,6.000000,14.000000,373357.593750,1.000000,1.000000
440455.39998962,4464020.97000305,9.35999966,146,255,0,6.000000,19.000000,373357.593750,0.000000,1.000000
440455.39998962,4464020.92000000,9.10000038,135,255,0,6.000000,3.000000,373357.593750,0.000000,1.000000
440453.85999634,4464020.48999969,10.10000038,177,255,0,6.000000,17.000000,373357.593750,1.000000,1.000000
440455.42998840,4464021.07000153,9.76000023,163,255,0,6.000000,19.000000,373357.593750,0.000000,1.000000
440453.92998840,4464021.29000275,9.63000011,157,255,0,6.000000,1.000000,373357.593750,1.000000,1.000000
440453.92998840,4464021.19999878,9.53999996,154,255,0,6.000000,17.000000,373357.593750,1.000000,1.000000
440453.60000183,4464024.67000000,10.61999989,200,255,0,6.000000,14.000000,373357.687500,1.000000,1.000000
440453.56998779,4464024.50000183,10.63000011,201,255,0,6.000000,30.000000,373357.687500,1.000000,1.000000
440453.54999878,4464024.40000336,10.46000004,193,255,0,6.000000,14.000000,373357.687500,0.000000,1.000000
440453.39998962,4464023.22999756,10.60000038,199,255,0,6.000000,30.000000,373357.687500,0.000000,1.000000
440454.63999512,4464020.79999725,11.13000011,222,255,0,6.000000,17.000000,373357.687500,1.000000,1.000000
440454.70998718,4464021.43000214,10.80000019,208,255,0,6.000000,17.000000,373357.687500,0.000000,1.000000
440453.27000000,4464022.33000366,10.18000031,181,255,0,6.000000,30.000000,373357.687500,0.000000,1.000000
440453.17998840,4464020.94999878,10.60000038,199,255,0,6.000000,14.000000,373357.687500,0.000000,1.000000
440454.63000061,4464020.89000122,9.57999992,155,255,0,6.000000,1.000000,373357.687500,1.000000,1.000000
440453.16999390,4464021.58000366,9.97999954,172,255,0,6.000000,14.000000,373357.687500,0.000000,1.000000
440454.64998962,4464021.30999939,9.86999989,168,255,0,6.000000,17.000000,373357.687500,0.000000,1.000000
440453.14998962,4464021.48999969,9.89000034,169,255,0,6.000000,30.000000,373357.687500,1.000000,1.000000
440454.63000061,4464021.21000092,9.68999958,160,255,0,6.000000,1.000000,373357.687500,1.000000,1.000000
440453.10000183,4464021.12999908,9.92000008,170,255,0,6.000000,30.000000,373357.687500,1.000000,1.000000
440455.38000061,4464021.43000214,10.77999973,207,255,0,6.000000,1.000000,373357.781250,0.000000,1.000000
440453.88000061,4464020.85000031,10.82999992,209,255,0,6.000000,14.000000,373357.781250,1.000000,1.000000
440455.36999084,4464021.36999695,10.65999985,201,255,0,6.000000,17.000000,373357.781250,1.000000,1.000000
440452.40999939,4464022.48999969,10.02000046,174,255,0,6.000000,12.000000,373357.781250,0.000000,1.000000
440455.32999756,4464021.07000153,10.59000015,198,255,0,6.000000,17.000000,373357.781250,0.000000,1.000000
440453.83999207,4464020.79000275,10.17000008,180,255,0,6.000000,30.000000,373357.781250,0.000000,1.000000
440455.29999878,4464020.86000244,9.47000027,151,255,0,6.000000,1.000000,373357.781250,0.000000,1.000000
440455.32999756,4464021.26999847,9.72000027,162,255,0,6.000000,17.000000,373357.781250,0.000000,1.000000
440453.79999878,4464020.53000061,10.07999992,177,255,0,6.000000,30.000000,373357.781250,1.000000,1.000000
440455.28998901,4464021.04999725,9.72999954,162,255,0,6.000000,1.000000,373357.781250,1.000000,1.000000
440453.80999329,4464021.29000275,9.68000031,160,255,0,6.000000,14.000000,373357.781250,1.000000,1.000000
440453.02000000,4464023.48999969,10.64000034,201,255,0,6.000000,12.000000,373357.906250,0.000000,1.000000
440452.96999695,4464023.19999878,10.51000023,195,255,0,6.000000,12.000000,373357.906250,0.000000,1.000000
440452.94999268,4464023.00000183,10.59000015,198,255,0,6.000000,28.000000,373357.906250,1.000000,1.000000
440454.33999207,4464020.90999786,10.94999981,214,255,0,6.000000,30.000000,373357.906250,1.000000,1.000000
440454.29999878,4464020.90000336,10.10000038,177,255,0,6.000000,14.000000,373357.906250,1.000000,1.000000
440454.28998901,4464020.89000122,9.89999962,169,255,0,6.000000,30.000000,373357.906250,0.000000,1.000000
440455.77000000,4464021.11999695,10.03999996,175,255,0,6.000000,1.000000,373357.906250,1.000000,1.000000
440454.24999573,4464020.44999878,10.27999973,186,255,0,6.000000,14.000000,373357.906250,1.000000,1.000000
440454.24999573,4464021.18000214,9.72000027,162,255,0,6.000000,14.000000,373357.906250,0.000000,1.000000
440454.24000122,4464021.17000000,9.52000046,153,255,0,6.000000,30.000000,373357.906250,1.000000,1.000000
440454.20998718,4464021.03000061,9.40999985,148,255,0,6.000000,14.000000,373357.906250,0.000000,1.000000
440453.39998962,4464024.43999664,10.43999958,192,255,0,6.000000,12.000000,373358.000000,0.000000,1.000000
440454.63000061,4464020.75000183,11.02000046,217,255,0,6.000000,30.000000,373358.000000,1.000000,1.000000
440453.16999390,4464022.40999786,10.13000011,179,255,0,6.000000,28.000000,373358.000000,0.000000,1.000000
440454.58999207,4464020.79999725,10.09000015,177,255,0,6.000000,14.000000,373358.000000,0.000000,1.000000
440454.57999756,4464020.69999878,10.03999996,175,255,0,6.000000,30.000000,373358.000000,0.000000,1.000000
440453.10000183,4464021.57000153,10.06000042,176,255,0,6.000000,12.000000,373358.000000,1.000000,1.000000
440453.07999756,4464021.54000275,9.89000034,169,255,0,6.000000,28.000000,373358.000000,1.000000,1.000000
440454.56998779,4464021.32000153,9.67000008,160,255,0,6.000000,30.000000,373358.000000,0.000000,1.000000
440454.53998901,4464021.11000244,9.65999985,159,255,0,6.000000,14.000000,373358.000000,0.000000,1.000000
440453.03998901,4464021.15999786,9.89000034,169,255,0,6.000000,28.000000,373358.000000,1.000000,1.000000
440453.67998840,4464025.01999847,10.94999981,214,255,0,6.000000,28.000000,373358.093750,0.000000,1.000000
440453.64998962,4464024.86999695,10.73999977,205,255,0,6.000000,12.000000,373358.093750,1.000000,1.000000
440453.60999634,4464024.54000275,10.65999985,201,255,0,6.000000,12.000000,373358.093750,1.000000,1.000000
440454.85000183,4464020.80999939,10.89999962,212,255,0,6.000000,14.000000,373358.093750,1.000000,1.000000
440454.82999756,4464020.83000366,10.64999962,201,255,0,6.000000,30.000000,373358.093750,1.000000,1.000000
440453.35000183,4464022.43000214,10.15999985,180,255,0,6.000000,12.000000,373358.093750,0.000000,1.000000
440453.35000183,4464020.90000336,10.56999969,198,255,0,6.000000,12.000000,373358.093750,1.000000,1.000000
440454.79999878,4464021.08999817,10.52999973,196,255,0,6.000000,14.000000,373358.093750,1.000000,1.000000
440453.33999207,4464020.69999878,10.68000031,203,255,0,6.000000,28.000000,373358.093750,1.000000,1.000000
440454.77000000,4464020.86999695,9.60000038,157,255,0,6.000000,30.000000,373358.093750,0.000000,1.000000
440453.24000122,4464021.39000122,9.93999958,171,255,0,6.000000,28.000000,373358.093750,1.000000,1.000000
440453.21999695,4464021.21000092,9.86999989,168,255,0,6.000000,12.000000,373358.093750,1.000000,1.000000
440453.19999268,4464021.08999817,9.85999966,168,255,0,6.000000,28.000000,373358.093750,1.000000,1.000000
440453.96999695,4464020.93000214,10.93000031,213,255,0,6.000000,12.000000,373358.187500,1.000000,1.000000
440455.38999512,4464021.46000092,10.69999981,204,255,0,6.000000,14.000000,373358.187500,0.000000,1.000000
440455.38999512,4464021.37999908,10.60999966,200,255,0,6.000000,30.000000,373358.187500,0.000000,1.000000
