//X,Y,Z,R,G,B,Point Source ID,User Data,Time,Intensity,Classification
440472.68999817,4464071.66000549,6.59000015,27,255,0,4.000000,21.000000,373235.437500,63.000000,1.000000
440473.64998962,4464076.67999451,6.46000004,21,255,0,4.000000,21.000000,373235.531250,63.000000,1.000000
440475.49000122,4464071.00000183,6.40999985,19,255,0,4.000000,7.000000,373235.531250,63.000000,1.000000
440475.33999207,4464069.70999329,6.40000010,19,255,0,4.000000,23.000000,373235.531250,63.000000,1.000000
440471.80999329,4464076.09999268,5.76999998,0,247,7,4.000000,3.000000,373235.625000,63.000000,1.000000
440472.72999146,4464075.75999634,6.17000008,9,255,0,4.000000,19.000000,373235.812500,63.000000,1.000000
440473.32999756,4464075.59999268,6.21999979,11,255,0,4.000000,3.000000,373235.937500,63.000000,1.000000
440473.00999023,4464072.66000549,6.55999994,26,255,0,4.000000,3.000000,373235.937500,63.000000,1.000000
440475.04999878,4464069.30999939,6.59999990,27,255,0,4.000000,21.000000,373235.937500,63.000000,1.000000
440474.00999023,4464077.00000183,6.53000021,24,255,0,4.000000,3.000000,373236.031250,63.000000,1.000000
440471.45998718,4464075.41000549,6.19000006,10,255,0,4.000000,17.000000,373236.031250,63.000000,1.000000
440473.69999268,4464074.24000732,6.03000021,3,255,0,4.000000,3.000000,373236.031250,63.000000,1.000000
440471.54999878,4464071.25000183,6.19999981,10,255,0,4.000000,17.000000,373236.125000,63.000000,1.000000
440472.49000122,4464076.34999268,6.01000023,2,255,0,4.000000,1.000000,373236.218750,63.000000,1.000000
440472.41999390,4464075.70999329,6.05000019,4,255,0,4.000000,17.000000,373236.218750,63.000000,1.000000
440472.88999512,4464076.63000671,6.48999977,23,255,0,4.000000,1.000000,373236.312500,63.000000,1.000000
440477.21999695,4464072.42000000,5.98999977,1,255,0,4.000000,5.000000,373236.312500,63.000000,1.000000
440473.11999084,4464075.64000122,6.30999994,15,255,0,4.000000,1.000000,373236.437500,63.000000,1.000000
440476.56998779,4464073.72999756,6.61999989,29,255,0,4.000000,19.000000,373236.625000,63.000000,1.000000
440471.27000000,4464075.49000732,6.26000023,13,255,0,4.000000,12.000000,373236.937500,63.000000,1.000000
440475.39998962,4464069.86000244,6.34000015,16,255,0,4.000000,17.000000,373236.937500,63.000000,1.000000
440471.31998779,4464072.78000061,6.15999985,8,255,0,4.000000,28.000000,373237.031250,63.000000,1.000000
440471.21999695,4464071.89999573,6.23000002,11,255,0,4.000000,28.000000,373237.031250,63.000000,1.000000
440476.83999207,4464072.63000671,5.80999994,0,249,5,4.000000,1.000000,373237.218750,63.000000,1.000000
440472.60999634,4464071.67000000,6.67000008,30,255,0,4.000000,12.000000,373237.312500,63.000000,1.000000
440472.22999146,4464069.42000000,6.36999989,17,255,0,4.000000,12.000000,373237.312500,63.000000,1.000000
440471.45998718,4464075.72999756,6.13000011,7,255,0,4.000000,26.000000,373237.531250,63.000000,1.000000
440472.58999207,4464075.97999756,5.80000019,0,248,6,4.000000,10.000000,373237.718750,63.000000,1.000000
440472.60999634,4464071.55000488,6.67000008,30,255,0,4.000000,10.000000,373237.812500,63.000000,1.000000
440472.35999634,4464070.33999817,6.25000000,12,255,0,4.000000,10.000000,373237.812500,63.000000,1.000000
440475.13000061,4464069.31999390,6.51999998,24,255,0,4.000000,12.000000,373237.937500,63.000000,1.000000
440471.29999878,4464072.58999817,6.13999987,8,255,0,4.000000,8.000000,373238.031250,63.000000,1.000000
440472.27999451,4464076.42000000,6.03000021,3,255,0,4.000000,24.000000,373238.125000,63.000000,1.000000
440472.97999146,4464076.66000549,6.53000021,24,255,0,4.000000,24.000000,373238.218750,63.000000,1.000000
440474.71999695,4464071.77000610,6.11999989,7,255,0,4.000000,10.000000,373238.218750,63.000000,1.000000
440472.49999573,4464071.72000305,6.67999983,31,255,0,4.000000,8.000000,373238.218750,63.000000,1.000000
440472.08999207,4464069.94000427,6.28000021,14,255,0,4.000000,8.000000,373238.218750,63.000000,1.000000
440473.02000000,4464073.83999817,6.44999981,21,255,0,4.000000,24.000000,373238.312500,63.000000,1.000000
440474.99999573,4464070.99000732,6.38000011,18,255,0,4.000000,26.000000,373238.312500,63.000000,1.000000
440471.13999512,4464075.86000244,6.05000019,4,255,0,4.000000,6.000000,373238.437500,63.000000,1.000000
440472.40999939,4464076.16000549,6.03999996,3,255,0,4.000000,22.000000,373238.625000,63.000000,1.000000
440472.86999084,4464074.13000671,5.90999985,0,253,1,4.000000,6.000000,373238.718750,63.000000,1.000000
440474.90999939,4464069.92000000,6.34000015,16,255,0,4.000000,8.000000,373238.718750,63.000000,1.000000
440476.49999573,4464072.78999512,6.23000002,11,255,0,4.000000,8.000000,373238.937500,63.000000,1.000000
440472.97999146,4464076.61000244,6.55999994,26,255,0,4.000000,20.000000,373239.031250,56.000000,1.000000
440473.04999878,4464072.80999939,6.57999992,26,255,0,4.000000,4.000000,373239.125000,57.000000,1.000000
440476.30999329,4464072.69000427,6.23999977,12,255,0,4.000000,22.000000,373239.437500,63.000000,1.000000
440476.53998901,4464072.81999390,6.23999977,12,255,0,4.000000,20.000000,373240.031250,55.000000,1.000000
440476.85999634,4464072.72999756,5.90000010,0,252,2,4.000000,2.000000,373240.531250,100.000000,1.000000
440474.15999939,4464070.69999878,6.55999994,26,255,0,4.000000,0.000000,373240.531250,63.000000,1.000000
440476.60999634,4464073.03999512,6.11999989,7,255,0,4.000000,0.000000,373240.937500,63.000000,1.000000
440477.25999023,4464074.52000610,5.92999983,0,254,0,5.000000,15.000000,373295.062500,63.000000,1.000000
440476.18999817,4464068.97000305,6.36000013,17,255,0,5.000000,29.000000,373295.875000,57.000000,1.000000
440472.99999573,4464070.05999939,6.42000008,20,255,0,5.000000,15.000000,373295.968750,63.000000,1.000000
440473.90999939,4464069.75000183,6.51999998,24,255,0,5.000000,29.000000,373296.375000,58.000000,1.000000
440473.21999695,4464069.61000244,6.28999996,14,255,0,5.000000,13.000000,373296.468750,58.000000,1.000000
440473.10999634,4464070.25999634,6.59000015,27,255,0,5.000000,29.000000,373296.468750,58.000000,1.000000
440472.66999390,4464069.69999878,5.96000004,0,255,0,5.000000,13.000000,373296.562500,57.000000,1.000000
440475.81998779,4464071.67000000,5.92000008,0,253,1,5.000000,25.000000,373296.781250,63.000000,1.000000
440475.57999756,4464069.47000305,6.67000008,30,255,0,5.000000,9.000000,373296.968750,63.000000,1.000000
440473.07999756,4464070.53000061,6.61000013,28,255,0,5.000000,27.000000,373296.968750,63.000000,1.000000
440472.28998901,4464071.61000244,6.42999983,20,255,0,5.000000,9.000000,373297.468750,63.000000,1.000000
440471.61999084,4464075.58000366,6.46000004,21,255,0,5.000000,9.000000,373297.468750,63.000000,1.000000
440476.24000122,4464071.24000732,6.51999998,24,255,0,5.000000,21.000000,373297.562500,63.000000,1.000000
440475.75999023,4464069.36000244,6.28999996,14,255,0,5.000000,5.000000,373297.656250,63.000000,1.000000
440475.60000183,4464070.64999573,6.63000011,29,255,0,5.000000,21.000000,373297.656250,63.000000,1.000000
440475.24000122,4464070.94999878,6.67000008,30,255,0,5.000000,19.000000,373298.062500,63.000000,1.000000
440475.04999878,4464068.86999695,6.05999994,4,255,0,5.000000,19.000000,373298.156250,63.000000,1.000000
440472.50999023,4464071.16000549,6.65000010,29,255,0,5.000000,5.000000,373298.156250,63.000000,1.000000
440471.90999939,4464075.78000061,6.53000021,24,255,0,5.000000,5.000000,373298.156250,63.000000,1.000000
440474.60999634,4464069.80999939,6.28000021,14,255,0,5.000000,19.000000,373298.250000,63.000000,1.000000
440471.94999268,4464072.83999817,6.67000008,30,255,0,5.000000,5.000000,373298.281250,63.000000,1.000000
440471.69999268,4464074.77000610,6.38000011,18,255,0,5.000000,21.000000,373298.281250,63.000000,1.000000
440471.69999268,4464072.67000000,5.76999998,0,247,7,5.000000,21.000000,373298.375000,63.000000,1.000000
440476.20998718,4464071.14999573,6.59999990,27,255,0,5.000000,1.000000,373298.468750,63.000000,1.000000
440471.13999512,4464074.70999329,6.21999979,11,255,0,5.000000,5.000000,373298.468750,63.000000,1.000000
440471.71999695,4464072.17000000,5.61999989,0,240,14,5.000000,3.000000,373298.656250,63.000000,1.000000
440473.40999939,4464074.00999634,5.67999983,0,243,11,5.000000,17.000000,373298.750000,63.000000,1.000000
440475.54999878,4464070.58999817,6.59000015,27,255,0,5.000000,30.000000,373298.968750,63.000000,1.000000
440474.58999207,4464069.00000183,5.65000010,0,242,12,5.000000,14.000000,373299.156250,63.000000,1.000000
440473.99999573,4464069.83000366,6.61000013,28,255,0,5.000000,14.000000,373299.250000,63.000000,1.000000
440475.60999634,4464069.28999512,6.50000000,23,255,0,5.000000,12.000000,373299.375000,63.000000,1.000000
440472.85000183,4464069.80999939,6.09999990,6,255,0,5.000000,14.000000,373299.468750,63.000000,1.000000
440475.08999207,4464070.81999390,6.59999990,27,255,0,5.000000,28.000000,373299.468750,63.000000,1.000000
440475.00999023,4464070.52000610,6.42999983,20,255,0,5.000000,28.000000,373299.562500,63.000000,1.000000
440472.35999634,4464075.50000183,6.42999983,20,255,0,5.000000,30.000000,373299.562500,63.000000,1.000000
440471.42998840,4464075.55000488,6.42999983,20,255,0,5.000000,30.000000,373299.781250,63.000000,1.000000
440471.28998901,4464074.72000305,6.28999996,14,255,0,5.000000,12.000000,373300.062500,63.000000,1.000000
440472.90999939,4464070.24000732,6.57999992,26,255,0,5.000000,26.000000,373300.281250,63.000000,1.000000
440472.40999939,4464071.70999329,6.61999989,29,255,0,5.000000,10.000000,373300.375000,63.000000,1.000000
440474.72999146,4464068.84999268,6.00000000,2,255,0,5.000000,24.000000,373300.468750,63.000000,1.000000
440472.19999268,4464075.80000488,6.40000010,19,255,0,5.000000,10.000000,373300.468750,63.000000,1.000000
440472.96999695,4464070.00000183,6.53999996,25,255,0,5.000000,8.000000,373300.781250,63.000000,1.000000
440472.99000122,4464075.84999268,5.80999994,0,249,5,5.000000,24.000000,373300.781250,63.000000,1.000000
440474.61999084,4464069.58999817,6.00000000,2,255,0,5.000000,6.000000,373300.875000,63.000000,1.000000
440473.89998962,4464069.41000549,6.57999992,26,255,0,5.000000,22.000000,373300.968750,63.000000,1.000000
440471.52999451,4464075.03999512,6.50000000,23,255,0,5.000000,24.000000,373300.968750,63.000000,1.000000
440475.56998779,4464068.72999756,5.92000008,0,253,1,5.000000,4.000000,373301.156250,59.000000,1.000000
440473.15999939,4464069.89999573,6.23000002,11,255,0,5.000000,6.000000,373301.156250,63.000000,1.000000
440472.55999329,4464069.69000427,6.07000017,5,255,0,5.000000,6.000000,373301.281250,63.000000,1.000000
440472.38999512,4464071.61999695,6.55000019,26,255,0,5.000000,22.000000,373301.281250,63.000000,1.000000
440474.85999634,4464076.91000549,6.46999979,22,255,0,5.000000,20.000000,373301.468750,56.000000,1.000000
440474.18999817,4464069.92999451,6.48999977,23,255,0,5.000000,20.000000,373301.562500,59.000000,1.000000
440471.67998840,4464072.80000488,6.55999994,26,255,0,5.000000,6.000000,373301.562500,63.000000,1.000000
440471.90999939,4464075.39999573,6.65999985,30,255,0,5.000000,6.000000,373301.562500,63.000000,1.000000
440473.58999207,4464072.75999634,6.67000008,30,255,0,5.000000,20.000000,373301.656250,58.000000,1.000000
440473.25999023,4464076.77000610,6.34000015,16,255,0,5.000000,4.000000,373301.781250,56.000000,1.000000
440471.96999695,4464075.30999939,6.65999985,30,255,0,5.000000,20.000000,373301.875000,57.000000,1.000000
440476.05999329,4464068.58000366,6.30999994,15,255,0,5.000000,16.000000,373301.968750,63.000000,1.000000
440473.43999817,4464069.75999634,6.19999981,10,255,0,5.000000,16.000000,373302.656250,63.000000,1.000000
440471.32999756,4464072.86999695,6.51999998,24,255,0,5.000000,0.000000,373302.968750,63.000000,1.000000
440472.24000122,4464071.28000061,5.78999996,0,248,6,6.000000,29.000000,373355.687500,63.000000,1.000000
440472.71999695,4464069.39999573,6.26999998,13,255,0,6.000000,13.000000,373355.875000,61.000000,1.000000
440472.78998901,4464069.69000427,5.67999983,0,243,11,6.000000,1.000000,373359.375000,63.000000,1.000000
440474.91999390,4464075.80999939,5.86999989,0,251,3,4.000000,29.000000,373233.531250,55.000000,1.000000
440472.47999146,4464076.44000427,5.71999979,0,245,9,4.000000,25.000000,373234.031250,63.000000,1.000000
440472.19999268,4464075.58000366,5.82999992,0,249,5,4.000000,7.000000,373234.531250,63.000000,1.000000
440471.20998718,4464076.05000488,5.96999979,0,255,0,4.000000,19.000000,373235.531250,63.000000,1.000000
440472.10999634,4464076.44999878,5.92000008,0,253,1,4.000000,4.000000,373238.937500,56.000000,1.000000
440476.20998718,4464071.50000183,6.19999981,10,255,0,5.000000,17.000000,373298.468750,63.000000,1.000000
440475.66999390,4464068.91000549,5.94000006,0,255,0,5.000000,12.000000,373299.375000,63.000000,1.000000
440472.47999146,4464071.00000183,5.63000011,0,241,13,5.000000,28.000000,373299.968750,63.000000,1.000000
440471.55999329,4464072.36000244,5.67000008,0,243,11,5.000000,24.000000,373300.968750,63.000000,1.000000
440471.55999329,4464075.86000244,5.96999979,0,255,0,3.000000,29.000000,373169.562500,62.000000,1.000000
440471.56998779,4464075.33000366,6.36000013,17,255,0,3.000000,9.000000,373171.062500,63.000000,1.000000
440472.49999573,4464075.80999939,5.73999977,0,246,8,4.000000,15.000000,373232.718750,63.000000,1.000000
440473.06998779,4464075.59999268,6.07000017,5,255,0,4.000000,31.000000,373232.812500,63.000000,1.000000
440473.93999817,4464076.70999329,6.44000006,20,255,0,4.000000,31.000000,373232.937500,63.000000,1.000000
440471.27999451,4464075.02000610,6.21000004,11,255,0,4.000000,13.000000,373232.937500,56.000000,1.000000
440471.88999512,4464075.53999512,5.82000017,0,249,5,4.000000,13.000000,373233.031250,56.000000,1.000000
440471.52000000,4464069.44999878,5.82999992,0,249,5,4.000000,29.000000,373233.031250,55.000000,1.000000
440471.49000122,4464075.94000427,5.96999979,0,255,0,4.000000,27.000000,373233.437500,63.000000,1.000000
440472.40999939,4464076.45999329,5.76000023,0,246,8,4.000000,11.000000,373233.531250,63.000000,1.000000
440472.60999634,4464075.52000610,6.11999989,7,255,0,4.000000,27.000000,373233.625000,63.000000,1.000000
440473.74000122,4464076.55999939,6.44999981,21,255,0,4.000000,11.000000,373233.812500,63.000000,1.000000
440471.33999207,4464076.11999695,5.80000019,0,248,6,4.000000,25.000000,373233.812500,63.000000,1.000000
440472.13000061,4464076.47999756,5.71999979,0,245,9,4.000000,25.000000,373233.937500,63.000000,1.000000
440472.10999634,4464076.02000610,5.75000000,0,246,8,4.000000,25.000000,373233.937500,63.000000,1.000000
440471.15999939,4464074.64000122,5.84000015,0,250,4,4.000000,23.000000,373234.312500,63.000000,1.000000
440471.63999512,4464069.36999695,5.76000023,0,246,8,4.000000,23.000000,373234.531250,63.000000,1.000000
440472.82999756,4464076.49000732,6.38000011,18,255,0,4.000000,23.000000,373234.625000,63.000000,1.000000
440472.78998901,4464072.97000305,6.57000017,26,255,0,4.000000,23.000000,373234.718750,63.000000,1.000000
440473.07999756,4464072.61000244,6.48999977,23,255,0,4.000000,7.000000,373234.937500,63.000000,1.000000
440471.49000122,4464075.39000122,6.07000017,5,255,0,4.000000,21.000000,373235.031250,63.000000,1.000000
440476.31998779,4464071.11999695,5.86000013,0,251,3,4.000000,25.000000,373235.125000,63.000000,1.000000
440472.36999084,4464076.36999695,5.88999987,0,252,2,4.000000,21.000000,373235.218750,63.000000,1.000000
440477.27000000,4464072.80999939,5.75000000,0,246,8,4.000000,23.000000,373235.812500,63.000000,1.000000
440473.29999878,4464075.36000244,6.09999990,6,255,0,4.000000,19.000000,373235.937500,63.000000,1.000000
440473.92998840,4464076.36000244,6.59000015,27,255,0,4.000000,19.000000,373236.031250,63.000000,1.000000
440474.50999023,4464076.88000671,6.11000013,6,255,0,4.000000,19.000000,373236.125000,63.000000,1.000000
440472.00999023,4464075.86999695,5.80999994,0,249,5,4.000000,17.000000,373236.125000,63.000000,1.000000
440473.91999390,4464077.00999634,6.67000008,30,255,0,4.000000,17.000000,373236.531250,63.000000,1.000000
440471.32999756,4464075.08999817,6.26999998,13,255,0,4.000000,14.000000,373236.531250,63.000000,1.000000
440472.52999451,4464072.83999817,6.15000010,8,255,0,4.000000,30.000000,373236.718750,63.000000,1.000000
440473.74999573,4464076.47000305,6.42999983,20,255,0,4.000000,14.000000,373236.937500,63.000000,1.000000
440476.46999695,4464076.83999817,5.88000011,0,252,2,4.000000,17.000000,373237.031250,63.000000,1.000000
440471.56998779,4464075.42999451,6.17999983,9,255,0,4.000000,12.000000,373237.031250,63.000000,1.000000
440476.00999023,4464077.89999573,5.57999992,0,239,15,4.000000,30.000000,373237.437500,63.000000,1.000000
440471.49999573,4464076.14000122,6.09999990,6,255,0,4.000000,26.000000,373237.531250,63.000000,1.000000
440475.69999268,4464071.39999573,6.15999985,8,255,0,4.000000,14.000000,373237.531250,63.000000,1.000000
440472.65999939,4464076.30999939,6.00000000,2,255,0,4.000000,26.000000,373237.718750,63.000000,1.000000
440471.57999756,4464076.31999390,5.57999992,0,239,15,4.000000,8.000000,373238.031250,63.000000,1.000000
440476.74999573,4464073.59999268,6.61999989,29,255,0,4.000000,12.000000,373238.125000,63.000000,1.000000
440474.60999634,4464070.50000183,6.51000023,23,255,0,4.000000,10.000000,373238.218750,63.000000,1.000000
440472.88999512,4464074.16000549,5.80999994,0,249,5,4.000000,8.000000,373238.312500,63.000000,1.000000
440471.78998901,4464075.89000122,6.07000017,5,255,0,4.000000,22.000000,373238.531250,63.000000,1.000000
440472.47999146,4464076.78999512,5.82000017,0,249,5,4.000000,6.000000,373238.625000,63.000000,1.000000
440472.45998718,4464076.39000122,6.11000013,6,255,0,4.000000,6.000000,373238.625000,63.000000,1.000000
440476.75999023,4464072.83000366,5.82000017,0,249,5,4.000000,26.000000,373238.625000,63.000000,1.000000
440472.92998840,4464072.75000183,6.61000013,28,255,0,4.000000,6.000000,373238.718750,63.000000,1.000000
440475.54999878,4464071.31999390,6.38999987,18,255,0,4.000000,8.000000,373238.812500,63.000000,1.000000
440477.21999695,4464072.77000610,5.96000004,0,255,0,4.000000,24.000000,373239.031250,63.000000,1.000000
440474.67998840,4464071.94999878,6.01000023,2,255,0,4.000000,22.000000,373239.031250,63.000000,1.000000
440472.49999573,4464076.69000427,5.84999990,0,250,4,4.000000,18.000000,373239.531250,100.000000,1.000000
440474.38999512,4464072.00000183,6.51999998,24,255,0,4.000000,4.000000,373239.531250,56.000000,1.000000
440477.25999023,4464072.11999695,6.05999994,4,255,0,4.000000,22.000000,373239.625000,63.000000,1.000000
440474.71999695,4464071.70999329,5.84000015,0,250,4,4.000000,20.000000,373239.625000,55.000000,1.000000
440472.05999329,4464076.53000061,5.90000010,0,252,2,4.000000,16.000000,373240.031250,63.000000,1.000000
440477.22999146,4464072.50000183,6.03000021,3,255,0,4.000000,0.000000,373241.125000,63.000000,1.000000
440475.60000183,4464069.14000122,6.01999998,2,255,0,5.000000,31.000000,373295.562500,63.000000,1.000000
440476.18999817,4464068.81999390,6.23999977,12,255,0,5.000000,13.000000,373295.875000,57.000000,1.000000
440475.54999878,4464069.06999390,6.07000017,5,255,0,5.000000,29.000000,373295.968750,58.000000,1.000000
440475.53998901,4464069.28000061,6.21999979,11,255,0,5.000000,13.000000,373295.968750,58.000000,1.000000
440473.02000000,4464069.81999390,5.98000002,1,255,0,5.000000,31.000000,373295.968750,63.000000,1.000000
440471.28998901,4464075.72000305,6.26000023,13,255,0,5.000000,15.000000,373296.062500,63.000000,1.000000
440475.00999023,4464070.86999695,6.55999994,26,255,0,5.000000,9.000000,373297.062500,63.000000,1.000000
440473.40999939,4464069.83999817,6.19999981,10,255,0,5.000000,23.000000,373297.656250,63.000000,1.000000
440475.44999268,4464071.74000732,6.00000000,2,255,0,5.000000,5.000000,373297.656250,63.000000,1.000000
440471.74999573,4464072.45999329,5.82999992,0,249,5,5.000000,7.000000,373297.875000,63.000000,1.000000
440471.68999817,4464072.95999329,5.78000021,0,247,7,5.000000,7.000000,373297.875000,63.000000,1.000000
440472.47999146,4464071.05999939,5.59000015,0,239,15,5.000000,5.000000,373298.156250,63.000000,1.000000
440471.74999573,4464074.33999817,6.19999981,10,255,0,5.000000,21.000000,373298.281250,63.000000,1.000000
440471.45998718,4464074.47999756,6.23000002,11,255,0,5.000000,19.000000,373298.656250,63.000000,1.000000
440476.04999878,4464068.89000122,6.42999983,20,255,0,5.000000,30.000000,373298.875000,63.000000,1.000000
440475.64998962,4464069.06999390,6.13000011,7,255,0,5.000000,30.000000,373298.968750,63.000000,1.000000
440474.95998718,4464068.80999939,5.96000004,0,255,0,5.000000,30.000000,373299.062500,63.000000,1.000000
440471.30999329,4464074.78000061,6.21999979,11,255,0,5.000000,1.000000,373299.281250,63.000000,1.000000
440472.22999146,4464075.50999634,6.50000000,23,255,0,5.000000,12.000000,373299.968750,63.000000,1.000000
440471.28998901,4464075.02000610,6.50000000,23,255,0,5.000000,28.000000,373300.062500,63.000000,1.000000
440471.27000000,4464075.58000366,6.34000015,16,255,0,5.000000,28.000000,373300.062500,63.000000,1.000000
440473.08999207,4464069.42000000,5.65000010,0,242,12,5.000000,24.000000,373300.781250,63.000000,1.000000
440476.06998779,4464071.41000549,6.05000019,4,255,0,5.000000,20.000000,373301.062500,58.000000,1.000000
440475.61999084,4464070.47999756,6.53999996,25,255,0,5.000000,20.000000,373301.156250,58.000000,1.000000
440472.21999695,4464075.08999817,6.51999998,24,255,0,5.000000,6.000000,373301.468750,63.000000,1.000000
440473.21999695,4464076.36000244,6.55000019,26,255,0,5.000000,20.000000,373301.781250,56.000000,1.000000
440477.24000122,4464072.55999939,6.40999985,19,255,0,5.000000,16.000000,373301.875000,63.000000,1.000000
440471.13999512,4464075.66000549,6.26999998,13,255,0,5.000000,20.000000,373301.968750,57.000000,1.000000
440471.89998962,4464069.95999329,5.57999992,0,239,15,6.000000,5.000000,373358.375000,63.000000,1.000000
440474.95998718,4464075.39999573,5.59000015,0,239,15,4.000000,13.000000,373233.531250,55.000000,1.000000
440477.24000122,4464072.74000732,5.69000006,0,243,11,4.000000,29.000000,373234.031250,54.000000,1.000000
440477.31998779,4464073.22000305,5.69000006,0,243,11,4.000000,23.000000,373235.812500,63.000000,1.000000
440477.31998779,4464073.25999634,5.71000004,0,244,10,4.000000,5.000000,373236.312500,63.000000,1.000000
440477.33999207,4464073.88000671,5.57999992,0,239,15,4.000000,12.000000,373238.218750,63.000000,1.000000
440476.44999268,4464074.14999573,5.67000008,0,243,11,4.000000,6.000000,373239.437500,63.000000,1.000000
440476.64998962,4464074.24000732,5.59000015,0,239,15,4.000000,4.000000,373240.031250,55.000000,1.000000
440477.14998962,4464074.13000671,5.59000015,0,239,15,4.000000,16.000000,373241.031250,63.000000,1.000000
440477.13000061,4464073.70999329,5.84999990,0,250,4,4.000000,16.000000,373241.031250,63.000000,1.000000
440476.39998962,4464078.09999268,5.63000011,0,241,13,3.000000,29.000000,373168.750000,61.000000,1.000000
440475.71999695,4464076.53000061,5.59000015,0,239,15,3.000000,9.000000,373170.468750,63.000000,1.000000
440476.10999634,4464077.17000000,5.75000000,0,246,8,3.000000,1.000000,373172.875000,63.000000,1.000000
440474.95998718,4464075.89000122,5.61000013,0,240,14,4.000000,27.000000,373234.031250,63.000000,1.000000
440475.31998779,4464076.56999390,5.57000017,0,238,16,4.000000,9.000000,373234.625000,63.000000,1.000000
440475.65999939,4464076.08999817,5.57000017,0,238,16,4.000000,25.000000,373234.718750,63.000000,1.000000
440476.86999084,4464076.72000305,5.67999983,0,243,11,4.000000,9.000000,373235.125000,63.000000,1.000000
440476.65999939,4464076.75999634,5.71999979,0,245,9,4.000000,7.000000,373235.625000,63.000000,1.000000
440475.92998840,4464077.50000183,5.61999989,0,240,14,4.000000,21.000000,373235.937500,63.000000,1.000000
440476.86999084,4464076.58999817,5.76000023,0,246,8,4.000000,5.000000,373236.125000,63.000000,1.000000
440476.88999512,4464076.69999878,5.76999998,0,247,7,4.000000,19.000000,373236.625000,63.000000,1.000000
440474.52999451,4464076.88000671,6.05999994,4,255,0,4.000000,1.000000,373236.625000,63.000000,1.000000
440475.28998901,4464076.61000244,5.57999992,0,239,15,4.000000,1.000000,373236.718750,63.000000,1.000000
440476.86999084,4464076.75999634,5.78000021,0,247,7,4.000000,17.000000,373237.125000,63.000000,1.000000
440476.00999023,4464078.03999512,5.63000011,0,241,13,4.000000,14.000000,373237.437500,63.000000,1.000000
440475.96999695,4464077.64000122,5.61999989,0,240,14,4.000000,14.000000,373237.437500,63.000000,1.000000
440475.93999817,4464077.42000000,5.57000017,0,238,16,4.000000,30.000000,373237.437500,63.000000,1.000000
440474.53998901,4464076.83999817,6.09999990,6,255,0,4.000000,12.000000,373237.625000,63.000000,1.000000
440475.99999573,4464077.64000122,5.57999992,0,239,15,4.000000,12.000000,373237.937500,63.000000,1.000000
440474.33999207,4464077.03000061,6.21999979,11,255,0,4.000000,8.000000,373238.531250,63.000000,1.000000
440476.63999512,4464076.55999939,5.63999987,0,241,13,4.000000,10.000000,373238.531250,63.000000,1.000000
440475.95998718,4464078.11999695,5.63999987,0,241,13,4.000000,22.000000,373239.125000,63.000000,1.000000
440476.89998962,4464076.86999695,5.80000019,0,248,6,4.000000,22.000000,373239.437500,63.000000,1.000000
440474.47999146,4464077.05000488,6.15999985,8,255,0,4.000000,4.000000,373239.437500,56.000000,1.000000
440475.92998840,4464078.31999390,5.59000015,0,239,15,4.000000,20.000000,373239.718750,56.000000,1.000000
440476.63999512,4464076.84999268,5.73999977,0,246,8,4.000000,20.000000,373239.937500,56.000000,1.000000
440476.05999329,4464077.09999268,5.65000010,0,242,12,4.000000,0.000000,373240.718750,63.000000,1.000000
440476.68999817,4464076.77000610,5.69999981,0,244,10,4.000000,0.000000,373240.843750,63.000000,1.000000
440477.29999878,4464076.30999939,5.71999979,0,245,9,5.000000,15.000000,373294.968750,63.000000,1.000000
440477.13000061,4464076.28999512,5.61999989,0,240,14,5.000000,17.000000,373298.062500,63.000000,1.000000
440472.88999512,4464076.28000061,6.34999990,17,255,0,3.000000,15.000000,373168.750000,63.000000,1.000000
440473.49999573,4464074.97999756,6.34999990,17,255,0,3.000000,29.000000,373169.250000,62.000000,1.000000
440473.04999878,4464076.61999695,6.44999981,21,255,0,3.000000,29.000000,373169.343750,61.000000,1.000000
440472.21999695,4464075.64000122,6.40999985,19,255,0,3.000000,29.000000,373169.468750,62.000000,1.000000
440472.19999268,4464075.92999451,5.76000023,0,246,8,3.000000,29.000000,373169.468750,62.000000,1.000000
440471.55999329,4464075.28000061,6.36999989,17,255,0,3.000000,29.000000,373169.562500,62.000000,1.000000
440472.65999939,4464076.58999817,5.69999981,0,244,10,3.000000,11.000000,373170.156250,63.000000,1.000000
440472.28998901,4464075.80000488,5.88999987,0,252,2,3.000000,11.000000,373170.468750,63.000000,1.000000
440472.80999329,4464076.25999634,6.51999998,24,255,0,3.000000,25.000000,373170.875000,63.000000,1.000000
440471.60999634,4464075.97000305,6.01999998,2,255,0,3.000000,9.000000,373171.062500,63.000000,1.000000
440474.40999939,4464076.83999817,6.51999998,24,255,0,3.000000,7.000000,373171.156250,63.000000,1.000000
440472.74999573,4464076.47999756,5.76999998,0,247,7,3.000000,7.000000,373171.468750,63.000000,1.000000
440473.16999390,4464076.30000488,6.59999990,27,255,0,3.000000,5.000000,373172.062500,63.000000,1.000000
440472.80999329,4464076.30000488,6.61000013,28,255,0,3.000000,5.000000,373172.156250,63.000000,1.000000
440472.69999268,4464076.02000610,6.11000013,6,255,0,3.000000,19.000000,373172.875000,63.000000,1.000000
440473.18999817,4464076.17999451,6.65999985,30,255,0,3.000000,17.000000,373173.468750,63.000000,1.000000
440473.17998840,4464076.50000183,6.38999987,18,255,0,3.000000,1.000000,373173.468750,63.000000,1.000000
440471.24000122,4464074.75999634,6.28999996,14,255,0,3.000000,30.000000,373174.375000,63.000000,1.000000
440472.05999329,4464076.16000549,5.88999987,0,252,2,3.000000,24.000000,373176.250000,63.000000,1.000000
440474.95998718,4464076.49000732,6.40000010,19,255,0,3.000000,20.000000,373177.062500,49.000000,1.000000
440472.86999084,4464076.14999573,6.61999989,29,255,0,3.000000,20.000000,373177.656250,49.000000,1.000000
440471.93999817,4464076.30999939,5.69999981,0,244,10,4.000000,15.000000,373232.625000,63.000000,1.000000
440471.88000061,4464075.66000549,5.67999983,0,243,11,4.000000,31.000000,373232.625000,63.000000,1.000000
440471.79999878,4464075.28999512,6.01999998,2,255,0,4.000000,31.000000,373232.625000,63.000000,1.000000
440472.52999451,4464076.28000061,5.82000017,0,249,5,4.000000,15.000000,373232.718750,63.000000,1.000000
440472.47999146,4464076.14999573,6.01000023,2,255,0,4.000000,31.000000,373232.718750,63.000000,1.000000
440472.47999146,4464075.64000122,5.82999992,0,249,5,4.000000,31.000000,373232.718750,63.000000,1.000000
440472.06998779,4464069.89000122,6.17999983,9,255,0,4.000000,31.000000,373232.718750,63.000000,1.000000
440473.06998779,4464075.30999939,6.03999996,3,255,0,4.000000,15.000000,373232.812500,63.000000,1.000000
440472.72999146,4464072.97000305,6.59999990,27,255,0,4.000000,15.000000,373232.812500,63.000000,1.000000
440472.74000122,4464072.75000183,6.53999996,25,255,0,4.000000,31.000000,373232.812500,63.000000,1.000000
440473.95998718,4464076.89000122,6.38000011,18,255,0,4.000000,15.000000,373232.937500,63.000000,1.000000
440471.43999817,4464076.05000488,5.73000002,0,245,9,4.000000,29.000000,373232.937500,56.000000,1.000000
440471.36999084,4464075.89000122,5.92000008,0,253,1,4.000000,13.000000,373232.937500,56.000000,1.000000
440471.32999756,4464075.78000061,6.13999987,8,255,0,4.000000,29.000000,373232.937500,56.000000,1.000000
440471.31998779,4464075.47999756,6.11999989,7,255,0,4.000000,13.000000,373232.937500,56.000000,1.000000
440471.29999878,4464075.30000488,6.19000006,10,255,0,4.000000,29.000000,373232.937500,56.000000,1.000000
440471.28998901,4464074.49000732,5.69999981,0,244,10,4.000000,13.000000,373232.937500,56.000000,1.000000
440473.77999451,4464074.13000671,5.96000004,0,255,0,4.000000,15.000000,373232.937500,63.000000,1.000000
440473.79999878,4464073.92000000,6.05000019,4,255,0,4.000000,31.000000,373232.937500,63.000000,1.000000
440471.92998840,4464076.27000610,5.80000019,0,248,6,4.000000,29.000000,373233.031250,56.000000,1.000000
440471.90999939,4464075.81999390,5.73999977,0,246,8,4.000000,29.000000,373233.031250,56.000000,1.000000
440471.82999756,4464075.19000427,6.13000011,7,255,0,4.000000,13.000000,373233.031250,56.000000,1.000000
440474.24999573,4464073.44000427,6.09999990,6,255,0,4.000000,15.000000,373233.031250,63.000000,1.000000
440474.07999756,4464070.53000061,6.19999981,10,255,0,4.000000,31.000000,373233.031250,63.000000,1.000000
440472.46999695,4464076.67000000,5.61000013,0,240,14,4.000000,13.000000,373233.125000,56.000000,1.000000
440472.43999817,4464076.50999634,5.69999981,0,244,10,4.000000,29.000000,373233.125000,56.000000,1.000000
440472.36999084,4464075.80000488,5.82000017,0,249,5,4.000000,13.000000,373233.125000,56.000000,1.000000
440472.36999084,4464075.63000671,5.90000010,0,252,2,4.000000,29.000000,373233.125000,56.000000,1.000000
440471.96999695,4464070.03999512,6.09000015,5,255,0,4.000000,13.000000,373233.125000,55.000000,1.000000
440471.99000122,4464069.77000610,6.09999990,6,255,0,4.000000,29.000000,373233.125000,55.000000,1.000000
440471.97999146,4464069.45999329,6.11000013,6,255,0,4.000000,13.000000,373233.125000,55.000000,1.000000
440472.91999390,4464076.44999878,6.46000004,21,255,0,4.000000,13.000000,373233.218750,56.000000,1.000000
440472.85000183,4464075.55999939,6.07999992,5,255,0,4.000000,13.000000,373233.218750,56.000000,1.000000
440472.60000183,4464072.81999390,6.21999979,11,255,0,4.000000,29.000000,373233.218750,56.000000,1.000000
440473.64998962,4464076.84999268,6.38999987,18,255,0,4.000000,29.000000,373233.312500,56.000000,1.000000
440473.61999084,4464076.59999268,6.50000000,23,255,0,4.000000,13.000000,373233.312500,56.000000,1.000000
440473.57999756,4464075.95999329,6.01000023,2,255,0,4.000000,29.000000,373233.312500,56.000000,1.000000
440473.52999451,4464074.19999878,5.92999983,0,254,0,4.000000,13.000000,373233.312500,55.000000,1.000000
440474.04999878,4464076.92000000,6.32999992,16,255,0,4.000000,29.000000,373233.437500,56.000000,1.000000
440474.02000000,4464076.67000000,6.46999979,22,255,0,4.000000,13.000000,373233.437500,56.000000,1.000000
440471.54999878,4464075.99000732,5.59000015,0,239,15,4.000000,11.000000,373233.437500,63.000000,1.000000
440471.46999695,4464075.64999573,6.03000021,3,255,0,4.000000,11.000000,373233.437500,63.000000,1.000000
440471.45998718,4464075.45999329,6.05999994,4,255,0,4.000000,27.000000,373233.437500,63.000000,1.000000
440471.43999817,4464075.20999329,6.09999990,6,255,0,4.000000,11.000000,373233.437500,63.000000,1.000000
440471.40999939,4464075.03999512,6.19000006,10,255,0,4.000000,27.000000,373233.437500,63.000000,1.000000
440473.83999207,4464074.22999756,6.48000002,23,255,0,4.000000,29.000000,373233.437500,56.000000,1.000000
440473.83999207,4464073.91000549,6.17000008,9,255,0,4.000000,13.000000,373233.437500,55.000000,1.000000
440471.16999390,4464072.55000488,6.03000021,3,255,0,4.000000,27.000000,373233.437500,63.000000,1.000000
440476.22999146,4464070.52000610,6.17999983,9,255,0,4.000000,31.000000,373233.437500,63.000000,1.000000
440472.44999268,4464076.69999878,5.59999990,0,240,14,4.000000,27.000000,373233.531250,63.000000,1.000000
440472.38999512,4464076.30000488,5.86999989,0,251,3,4.000000,27.000000,373233.531250,63.000000,1.000000
440472.35000183,4464076.08000366,6.07000017,5,255,0,4.000000,11.000000,373233.531250,63.000000,1.000000
440472.36999084,4464075.81999390,5.78999996,0,248,6,4.000000,27.000000,373233.531250,63.000000,1.000000
440477.16999390,4464074.41000549,6.65999985,30,255,0,4.000000,31.000000,373233.531250,63.000000,1.000000
440472.05999329,4464073.69000427,6.50000000,23,255,0,4.000000,11.000000,373233.531250,63.000000,1.000000
440474.42998840,4464070.64999573,6.50000000,23,255,0,4.000000,29.000000,373233.531250,55.000000,1.000000
440471.95998718,4464069.94000427,5.92999983,0,254,0,4.000000,27.000000,373233.531250,63.000000,1.000000
440471.93999817,4464069.67000000,6.05999994,4,255,0,4.000000,11.000000,373233.531250,63.000000,1.000000
440471.92998840,4464069.47999756,6.09000015,5,255,0,4.000000,27.000000,373233.531250,63.000000,1.000000
440472.71999695,4464076.50999634,5.73000002,0,245,9,4.000000,11.000000,373233.625000,63.000000,1.000000
440472.69999268,4464076.36000244,5.82999992,0,249,5,4.000000,27.000000,373233.625000,63.000000,1.000000
440472.63999512,4464075.66000549,5.96999979,0,255,0,4.000000,11.000000,373233.625000,63.000000,1.000000
440472.40999939,4464072.28999512,5.75000000,0,246,8,4.000000,27.000000,373233.625000,63.000000,1.000000
440474.88000061,4464071.56999390,5.92999983,0,254,0,4.000000,13.000000,373233.625000,55.000000,1.000000
440474.65999939,4464069.89000122,6.13999987,8,255,0,4.000000,29.000000,373233.625000,55.000000,1.000000
440472.99999573,4464073.53999512,6.40999985,19,255,0,4.000000,11.000000,373233.718750,63.000000,1.000000
440472.86999084,4464072.83000366,6.51999998,24,255,0,4.000000,11.000000,373233.718750,63.000000,1.000000
440472.86999084,4464072.63000671,6.51000023,23,255,0,4.000000,27.000000,373233.718750,63.000000,1.000000
440472.83999207,4464072.36999695,6.61000013,28,255,0,4.000000,11.000000,373233.718750,63.000000,1.000000
440475.40999939,4464071.69999878,6.30000019,14,255,0,4.000000,13.000000,373233.718750,55.000000,1.000000
440473.77000000,4464076.80999939,6.34000015,16,255,0,4.000000,27.000000,373233.812500,63.000000,1.000000
440473.72999146,4464076.36000244,6.44000006,20,255,0,4.000000,27.000000,373233.812500,63.000000,1.000000
440471.24999573,4464075.80000488,6.07000017,5,255,0,4.000000,25.000000,373233.812500,63.000000,1.000000
440471.24000122,4464075.50000183,6.05000019,4,255,0,4.000000,9.000000,373233.812500,63.000000,1.000000
440471.20998718,4464075.08999817,6.26999998,13,255,0,4.000000,9.000000,373233.812500,63.000000,1.000000
440471.19999268,4464074.86000244,5.78000021,0,247,7,4.000000,25.000000,373233.812500,63.000000,1.000000
440475.86999084,4464071.47999756,6.32000017,15,255,0,4.000000,29.000000,373233.812500,55.000000,1.000000
440475.77000000,4464069.30000488,5.73000002,0,245,9,4.000000,13.000000,373233.812500,55.000000,1.000000
440472.11999084,4464076.25000183,5.84999990,0,250,4,4.000000,9.000000,373233.937500,63.000000,1.000000
440472.05999329,4464075.58000366,5.84000015,0,250,4,4.000000,25.000000,373233.937500,63.000000,1.000000
440474.30999329,4464073.67000000,6.19000006,10,255,0,4.000000,11.000000,373233.937500,63.000000,1.000000
440474.29999878,4464073.47000305,6.19000006,10,255,0,4.000000,27.000000,373233.937500,63.000000,1.000000
440476.69999268,4464071.72999756,5.86000013,0,251,3,4.000000,29.000000,373233.937500,55.000000,1.000000
440474.10000183,4464070.81999390,6.36999989,17,255,0,4.000000,27.000000,373233.937500,63.000000,1.000000
440471.60000183,4464069.30000488,5.71999979,0,245,9,4.000000,9.000000,373233.937500,63.000000,1.000000
440472.43999817,4464076.25999634,6.00000000,2,255,0,4.000000,9.000000,373234.031250,63.000000,1.000000
440472.42998840,4464076.05000488,5.96999979,0,255,0,4.000000,25.000000,373234.031250,63.000000,1.000000
440472.38999512,4464075.56999390,5.92000008,0,253,1,4.000000,25.000000,373234.031250,63.000000,1.000000
440477.13999512,4464073.22000305,6.55000019,26,255,0,4.000000,13.000000,373234.031250,55.000000,1.000000
440477.22999146,4464072.49000732,5.80000019,0,248,6,4.000000,13.000000,373234.031250,54.000000,1.000000
440477.19999268,4464072.33999817,5.92999983,0,254,0,4.000000,29.000000,373234.031250,54.000000,1.000000
440474.39998962,4464070.55000488,6.53000021,24,255,0,4.000000,11.000000,373234.031250,63.000000,1.000000
440474.32999756,4464069.99000732,6.13999987,8,255,0,4.000000,27.000000,373234.031250,63.000000,1.000000
440471.91999390,4464069.64999573,6.01000023,2,255,0,4.000000,25.000000,373234.031250,63.000000,1.000000
440472.85000183,4464076.42000000,6.40999985,19,255,0,4.000000,25.000000,373234.125000,63.000000,1.000000
440472.77000000,4464075.75000183,6.07999992,5,255,0,4.000000,9.000000,373234.125000,63.000000,1.000000
440472.75999023,4464075.55000488,6.05999994,4,255,0,4.000000,25.000000,373234.125000,63.000000,1.000000
440472.50999023,4464072.31999390,5.75000000,0,246,8,4.000000,25.000000,373234.125000,63.000000,1.000000
440474.70998718,4464069.84999268,6.07000017,5,255,0,4.000000,27.000000,373234.125000,63.000000,1.000000
440473.52000000,4464076.83000366,6.11999989,7,255,0,4.000000,9.000000,373234.218750,63.000000,1.000000
440473.36999084,4464075.59999268,6.13000011,7,255,0,4.000000,9.000000,373234.218750,63.000000,1.000000
440473.35999634,4464075.39000122,6.09999990,6,255,0,4.000000,25.000000,373234.218750,63.000000,1.000000
440473.04999878,4464072.66000549,6.42000008,20,255,0,4.000000,9.000000,373234.218750,63.000000,1.000000
440473.72999146,4464076.56999390,6.40000010,19,255,0,4.000000,25.000000,373234.312500,63.000000,1.000000
440471.28998901,4464076.00000183,6.09000015,5,255,0,4.000000,23.000000,373234.312500,63.000000,1.000000
440471.24000122,4464075.78999512,6.11000013,6,255,0,4.000000,7.000000,373234.312500,63.000000,1.000000
440471.24000122,4464075.55999939,6.01999998,2,255,0,4.000000,23.000000,373234.312500,63.000000,1.000000
440471.21999695,4464075.34999268,6.26000023,13,255,0,4.000000,7.000000,373234.312500,63.000000,1.000000
440471.19999268,4464075.17000000,6.30000019,14,255,0,4.000000,23.000000,373234.312500,63.000000,1.000000
440471.17998840,4464074.83999817,5.82000017,0,249,5,4.000000,7.000000,373234.312500,63.000000,1.000000
440473.53998901,4464074.22000305,5.98000002,1,255,0,4.000000,25.000000,373234.312500,63.000000,1.000000
440475.70998718,4464071.86000244,6.63000011,29,255,0,4.000000,27.000000,373234.312500,63.000000,1.000000
440475.75999023,4464071.09999268,6.09999990,6,255,0,4.000000,27.000000,373234.312500,63.000000,1.000000
440474.10000183,4464076.95999329,6.38000011,18,255,0,4.000000,9.000000,373234.437500,63.000000,1.000000
440474.07999756,4464076.78999512,6.44999981,21,255,0,4.000000,25.000000,373234.437500,63.000000,1.000000
440471.65999939,4464076.28000061,5.57999992,0,239,15,4.000000,7.000000,373234.437500,63.000000,1.000000
440471.60999634,4464075.94000427,5.80999994,0,249,5,4.000000,7.000000,373234.437500,63.000000,1.000000
440471.56998779,4464075.86999695,6.15999985,8,255,0,4.000000,23.000000,373234.437500,63.000000,1.000000
440471.54999878,4464075.56999390,6.13999987,8,255,0,4.000000,7.000000,373234.437500,63.000000,1.000000
440471.52999451,4464075.36999695,6.13000011,7,255,0,4.000000,23.000000,373234.437500,63.000000,1.000000
440471.49000122,4464074.89999573,5.71000004,0,244,10,4.000000,23.000000,373234.437500,63.000000,1.000000
440473.82999756,4464074.27000610,6.48999977,23,255,0,4.000000,9.000000,373234.437500,63.000000,1.000000
440473.85000183,4464074.00999634,6.34000015,16,255,0,4.000000,25.000000,373234.437500,63.000000,1.000000
440476.07999756,4464071.30999939,5.98999977,1,255,0,4.000000,27.000000,373234.437500,63.000000,1.000000
440476.02000000,4464070.36000244,6.32999992,16,255,0,4.000000,27.000000,373234.437500,63.000000,1.000000
440472.31998779,4464076.75000183,5.63999987,0,241,13,4.000000,23.000000,373234.531250,63.000000,1.000000
440472.28998901,4464076.47000305,5.69000006,0,243,11,4.000000,7.000000,373234.531250,63.000000,1.000000
440472.27000000,4464076.33000366,5.86000013,0,251,3,4.000000,23.000000,373234.531250,63.000000,1.000000
440472.22999146,4464076.08999817,6.03000021,3,255,0,4.000000,7.000000,373234.531250,63.000000,1.000000
440472.78998901,4464076.24000732,6.53999996,25,255,0,4.000000,7.000000,373234.625000,63.000000,1.000000
440472.74000122,4464075.78999512,6.00000000,2,255,0,4.000000,7.000000,373234.625000,63.000000,1.000000
440472.42998840,4464072.38000671,5.75000000,0,246,8,4.000000,23.000000,373234.625000,63.000000,1.000000
440474.82999756,4464071.94000427,5.90999985,0,253,1,4.000000,25.000000,373234.625000,63.000000,1.000000
440472.30999329,4464071.02000610,5.61000013,0,240,14,4.000000,23.000000,373234.625000,63.000000,1.000000
440472.17998840,4464069.64000122,6.03999996,3,255,0,4.000000,23.000000,373234.625000,63.000000,1.000000
440473.10000183,4464075.61000244,6.23000002,11,255,0,4.000000,7.000000,373234.718750,63.000000,1.000000
440472.89998962,4464073.64999573,6.38000011,18,255,0,4.000000,23.000000,373234.718750,63.000000,1.000000
440472.75999023,4464072.64999573,6.61999989,29,255,0,4.000000,7.000000,373234.718750,63.000000,1.000000
440474.90999939,4464068.75999634,5.86000013,0,251,3,4.000000,9.000000,373234.718750,63.000000,1.000000
440473.16999390,4464075.86999695,6.28000021,14,255,0,4.000000,7.000000,373234.812500,63.000000,1.000000
440473.15999939,4464075.67000000,6.28000021,14,255,0,4.000000,23.000000,373234.812500,63.000000,1.000000
440472.95998718,4464073.61000244,6.38000011,18,255,0,4.000000,7.000000,373234.812500,63.000000,1.000000
440472.82999756,4464072.70999329,6.51000023,23,255,0,4.000000,23.000000,373234.812500,63.000000,1.000000
440475.24000122,4464071.69000427,6.11999989,7,255,0,4.000000,9.000000,373234.812500,63.000000,1.000000
440474.97999146,4464068.75000183,5.73000002,0,245,9,4.000000,25.000000,373234.812500,63.000000,1.000000
440473.54999878,4464076.80000488,6.21000004,11,255,0,4.000000,7.000000,373234.937500,63.000000,1.000000
440473.41999390,4464075.88000671,6.28000021,14,255,0,4.000000,23.000000,373234.937500,63.000000,1.000000
440473.40999939,4464075.56999390,6.21000004,11,255,0,4.000000,7.000000,373234.937500,63.000000,1.000000
440473.30999329,4464074.31999390,5.98999977,1,255,0,4.000000,23.000000,373234.937500,63.000000,1.000000
440474.03998901,4464077.03000061,6.48999977,23,255,0,4.000000,7.000000,373235.031250,63.000000,1.000000
440473.99000122,4464076.61000244,6.61000013,28,255,0,4.000000,7.000000,373235.031250,63.000000,1.000000
440473.96999695,4464076.39000122,6.55999994,26,255,0,4.000000,23.000000,373235.031250,63.000000,1.000000
440471.54999878,4464075.99000732,5.82999992,0,249,5,4.000000,5.000000,373235.031250,63.000000,1.000000
440471.52999451,4464075.92000000,6.13999987,8,255,0,4.000000,21.000000,373235.031250,63.000000,1.000000
440471.50999023,4464075.61000244,6.11000013,6,255,0,4.000000,5.000000,373235.031250,63.000000,1.000000
440471.45998718,4464075.17999451,6.21999979,11,255,0,4.000000,5.000000,373235.031250,63.000000,1.000000
440475.74999573,4464069.36999695,5.82999992,0,249,5,4.000000,9.000000,373235.031250,63.000000,1.000000
440475.69999268,4464068.97000305,5.80999994,0,249,5,4.000000,9.000000,373235.031250,63.000000,1.000000
440474.41999390,4464076.77000610,6.17999983,9,255,0,4.000000,7.000000,373235.125000,63.000000,1.000000
440471.99999573,4464076.42999451,5.69999981,0,244,10,4.000000,21.000000,373235.125000,63.000000,1.000000
440471.96999695,4464076.20999329,5.88999987,0,252,2,4.000000,5.000000,373235.125000,63.000000,1.000000
440474.11999084,4464073.91000549,6.19999981,10,255,0,4.000000,23.000000,373235.125000,63.000000,1.000000
440474.07999756,4464073.42999451,6.23999977,12,255,0,4.000000,23.000000,373235.125000,63.000000,1.000000
440473.82999756,4464070.72000305,6.30999994,15,255,0,4.000000,23.000000,373235.125000,63.000000,1.000000
440472.42998840,4464076.77000610,5.61000013,0,240,14,4.000000,21.000000,373235.218750,63.000000,1.000000
440472.39998962,4464076.52000610,5.75000000,0,246,8,4.000000,5.000000,373235.218750,63.000000,1.000000
440472.31998779,4464075.91000549,5.82999992,0,249,5,4.000000,21.000000,373235.218750,63.000000,1.000000
440472.29999878,4464075.66000549,5.96999979,0,255,0,4.000000,5.000000,373235.218750,63.000000,1.000000
440476.88999512,4464073.36999695,6.51999998,24,255,0,4.000000,25.000000,373235.218750,63.000000,1.000000
440472.07999756,4464073.72000305,6.42999983,20,255,0,4.000000,5.000000,373235.218750,63.000000,1.000000
440474.18999817,4464070.67000000,6.48999977,23,255,0,4.000000,23.000000,373235.218750,63.000000,1.000000
440471.70998718,4464069.69000427,5.86999989,0,251,3,4.000000,5.000000,373235.218750,63.000000,1.000000
440472.88000061,4464076.50999634,6.51000023,23,255,0,4.000000,5.000000,373235.312500,63.000000,1.000000
440472.85999634,4464076.28000061,6.44000006,20,255,0,4.000000,21.000000,373235.312500,63.000000,1.000000
440472.80999329,4464075.84999268,5.92000008,0,253,1,4.000000,21.000000,373235.312500,63.000000,1.000000
440472.77999451,4464075.55999939,6.03999996,3,255,0,4.000000,5.000000,373235.312500,63.000000,1.000000
440472.52000000,4464073.08000366,6.36999989,17,255,0,4.000000,5.000000,373235.312500,63.000000,1.000000
440472.49999573,4464072.80000488,6.09999990,6,255,0,4.000000,21.000000,373235.312500,63.000000,1.000000
440474.67998840,4464070.52000610,6.44999981,21,255,0,4.000000,23.000000,373235.312500,63.000000,1.000000
440472.17998840,4464069.42000000,6.13999987,8,255,0,4.000000,21.000000,373235.312500,63.000000,1.000000
440473.08999207,4464075.56999390,6.17999983,9,255,0,4.000000,5.000000,373235.437500,63.000000,1.000000
440472.88999512,4464073.64000122,6.36999989,17,255,0,4.000000,21.000000,373235.437500,63.000000,1.000000
440472.80999329,4464072.91000549,6.46999979,22,255,0,4.000000,21.000000,373235.437500,63.000000,1.000000
440472.78998901,4464072.64999573,6.53999996,25,255,0,4.000000,5.000000,373235.437500,63.000000,1.000000
440474.85000183,4464068.78999512,5.94999981,0,255,0,4.000000,7.000000,373235.437500,63.000000,1.000000
440473.66999390,4464076.83999817,6.36000013,17,255,0,4.000000,5.000000,373235.531250,63.000000,1.000000
440471.16999390,4464075.64000122,6.01000023,2,255,0,4.000000,19.000000,373235.531250,63.000000,1.000000
440471.15999939,4464075.42000000,6.21000004,11,255,0,4.000000,3.000000,373235.531250,63.000000,1.000000
440473.40999939,4464074.31999390,6.00000000,2,255,0,4.000000,21.000000,373235.531250,63.000000,1.000000
440471.78998901,4464075.92999451,5.69999981,0,244,10,4.000000,19.000000,373235.625000,63.000000,1.000000
440471.77000000,4464075.75000183,5.80000019,0,248,6,4.000000,3.000000,373235.625000,63.000000,1.000000
