//X,Y,Z,R,G,B,Point Source ID,User Data,Time,Intensity,Classification
440464.29999878,4464102.75000183,8.57999992,112,255,0,5.000000,12.000000,373301.187500,63.000000,1.000000
440459.20998718,4464106.25999634,7.86999989,82,255,0,5.000000,30.000000,373301.687500,63.000000,1.000000
440461.31998779,4464106.36000244,8.47000027,108,255,0,5.000000,12.000000,373301.781250,63.000000,1.000000
440463.52999451,4464103.33999817,8.09000015,91,255,0,5.000000,8.000000,373302.375000,63.000000,1.000000
440462.74000122,4464103.92999451,7.88000011,83,255,0,5.000000,24.000000,373302.781250,63.000000,1.000000
440462.74000122,4464105.27000610,8.02000046,88,255,0,5.000000,8.000000,373302.781250,63.000000,1.000000
440460.38999512,4464106.58000366,8.17000008,95,255,0,5.000000,8.000000,373303.062500,63.000000,1.000000
440459.88999512,4464107.05999939,8.02999973,88,255,0,5.000000,24.000000,373303.187500,63.000000,1.000000
440465.49000122,4464103.33999817,8.02999973,88,255,0,5.000000,20.000000,373303.281250,52.000000,1.000000
440464.56998779,4464104.25000183,8.52000046,110,255,0,5.000000,20.000000,373303.468750,53.000000,1.000000
440464.54999878,4464105.14999573,8.81000042,122,255,0,5.000000,4.000000,373303.468750,53.000000,1.000000
440463.71999695,4464102.69999878,8.09000015,91,255,0,5.000000,4.000000,373303.687500,52.000000,1.000000
440463.67998840,4464103.44999878,8.42000008,106,255,0,5.000000,20.000000,373303.687500,52.000000,1.000000
440463.70998718,4464104.89000122,8.61999989,114,255,0,5.000000,20.000000,373303.687500,53.000000,1.000000
440461.03998901,4464106.44999878,8.76000023,120,255,0,5.000000,4.000000,373304.062500,53.000000,1.000000
440459.60999634,4464106.52000610,7.84999990,81,255,0,5.000000,4.000000,373304.281250,53.000000,1.000000
440466.10000183,4464103.97999756,7.82000017,80,255,0,3.000000,7.000000,373172.875000,63.000000,1.000000
440464.02000000,4464103.13000671,8.67000008,116,255,0,3.000000,7.000000,373173.281250,63.000000,1.000000
440459.88000061,4464108.78000061,8.06000042,90,255,0,3.000000,25.000000,373173.562500,63.000000,1.000000
440460.88000061,4464106.30000488,8.78999996,121,255,0,3.000000,1.000000,373175.375000,63.000000,1.000000
440463.36999084,4464104.75000183,8.71000004,118,255,0,3.000000,14.000000,373175.468750,63.000000,1.000000
440459.44999268,4464109.03999512,8.44999981,107,255,0,3.000000,17.000000,373175.656250,63.000000,1.000000
440460.30999329,4464105.50999634,8.39000034,104,255,0,3.000000,30.000000,373176.062500,63.000000,1.000000
440461.80999329,4464110.55000488,8.36999989,103,255,0,3.000000,24.000000,373177.375000,63.000000,1.000000
440461.88000061,4464102.72999756,7.94999981,85,255,0,3.000000,8.000000,373177.562500,63.000000,1.000000
440462.28998901,4464106.19999878,8.73999977,119,255,0,4.000000,13.000000,373230.812500,120.000000,1.000000
440459.95998718,4464105.16000549,8.17000008,95,255,0,4.000000,9.000000,373231.218750,63.000000,1.000000
440462.53998901,4464104.20999329,8.00000000,88,255,0,4.000000,11.000000,373231.312500,63.000000,1.000000
440460.07999756,4464109.20999329,8.65999985,116,255,0,4.000000,5.000000,373232.125000,63.000000,1.000000
440464.06998779,4464105.19000427,8.55000019,111,255,0,4.000000,9.000000,373232.125000,63.000000,1.000000
440463.68999817,4464104.66000549,8.64000034,115,255,0,4.000000,23.000000,373232.406250,63.000000,1.000000
440463.99000122,4464102.92999451,8.80000019,122,255,0,4.000000,23.000000,373232.531250,63.000000,1.000000
440458.99000122,4464106.47000305,8.13000011,93,255,0,4.000000,30.000000,373233.125000,63.000000,1.000000
440462.38000061,4464102.61000244,8.07999992,91,255,0,4.000000,1.000000,373233.406250,63.000000,1.000000
440460.60999634,4464106.45999329,8.64000034,115,255,0,4.000000,12.000000,373233.812500,63.000000,1.000000
440459.85999634,4464106.56999390,8.60000038,113,255,0,4.000000,24.000000,373234.531250,63.000000,1.000000
440463.02999451,4464105.56999390,8.63000011,115,255,0,4.000000,26.000000,373234.812500,63.000000,1.000000
440460.77000000,4464103.64999573,8.05000019,90,255,0,4.000000,8.000000,373234.906250,63.000000,1.000000
440460.36999084,4464106.89000122,8.84000015,124,255,0,4.000000,20.000000,373235.718750,60.000000,1.000000
440462.82999756,4464106.05999939,8.35999966,103,255,0,4.000000,6.000000,373235.812500,63.000000,1.000000
440464.68999817,4464103.39999573,7.94000006,85,255,0,4.000000,24.000000,373235.812500,63.000000,1.000000
440464.74000122,4464103.44000427,7.88999987,83,255,0,4.000000,6.000000,373236.312500,63.000000,1.000000
440463.13000061,4464105.16000549,8.56999969,112,255,0,4.000000,20.000000,373236.406250,60.000000,1.000000
440465.16999390,4464104.91000549,8.64999962,115,255,0,4.000000,4.000000,373236.718750,59.000000,1.000000
440464.13000061,4464105.39999573,8.69999981,118,255,0,4.000000,18.000000,373237.031250,100.000000,1.000000
440463.33999207,4464103.83999817,8.36999989,103,255,0,4.000000,0.000000,373237.406250,63.000000,1.000000
440464.16999390,4464104.50999634,8.89999962,126,255,0,5.000000,19.000000,373299.562500,63.000000,1.000000
440462.56998779,4464104.78000061,8.06999969,91,255,0,5.000000,14.000000,373300.875000,63.000000,1.000000
440465.45998718,4464103.83999817,8.85999966,124,255,0,5.000000,8.000000,373301.968750,63.000000,1.000000
440460.22999146,4464106.86999695,8.39000034,104,255,0,5.000000,10.000000,373302.468750,63.000000,1.000000
440463.72999146,4464103.63000671,8.30000019,100,255,0,3.000000,13.000000,373171.656250,46.000000,1.000000
440463.88000061,4464106.61999695,8.34000015,102,255,0,3.000000,13.000000,373171.656250,47.000000,1.000000
440463.47999146,4464105.22999756,8.52000046,110,255,0,3.000000,29.000000,373171.750000,47.000000,1.000000
440463.27999451,4464107.19999878,8.80000019,122,255,0,3.000000,29.000000,373171.875000,48.000000,1.000000
440465.21999695,4464105.30000488,8.81999969,123,255,0,3.000000,11.000000,373171.968750,63.000000,1.000000
440462.75999023,4464111.24000732,8.06999969,91,255,0,3.000000,13.000000,373171.968750,49.000000,1.000000
440461.99000122,4464110.61000244,8.06999969,91,255,0,3.000000,13.000000,373172.156250,49.000000,1.000000
440464.03998901,4464107.33000366,7.96999979,86,255,0,3.000000,11.000000,373172.281250,63.000000,1.000000
440463.49999573,4464105.05000488,8.53999996,111,255,0,3.000000,27.000000,373172.375000,63.000000,1.000000
440463.11999084,4464107.17999451,8.15999985,94,255,0,3.000000,11.000000,373172.468750,63.000000,1.000000
440460.68999817,4464109.03000061,8.73999977,119,255,0,3.000000,29.000000,373172.468750,50.000000,1.000000
440462.53998901,4464111.44000427,7.86000013,82,255,0,3.000000,11.000000,373172.562500,63.000000,1.000000
440464.38000061,4464103.09999268,8.69999981,118,255,0,3.000000,9.000000,373172.656250,63.000000,1.000000
440461.79999878,4464110.33000366,7.88999987,83,255,0,3.000000,11.000000,373172.656250,63.000000,1.000000
440465.44999268,4464104.91000549,8.56999969,112,255,0,3.000000,7.000000,373172.968750,63.000000,1.000000
440462.77999451,4464110.03000061,7.88000011,83,255,0,3.000000,25.000000,373172.968750,63.000000,1.000000
440463.99999573,4464103.55999939,8.34000015,102,255,0,3.000000,7.000000,373173.281250,63.000000,1.000000
440463.96999695,4464107.19000427,7.94999981,85,255,0,3.000000,7.000000,373173.281250,63.000000,1.000000
440463.35000183,4464104.86000244,8.59000015,113,255,0,3.000000,5.000000,373173.875000,63.000000,1.000000
440463.40999939,4464103.72000305,8.46000004,107,255,0,3.000000,19.000000,373174.375000,63.000000,1.000000
440466.19999268,4464103.88000671,7.86999989,82,255,0,3.000000,1.000000,373174.375000,63.000000,1.000000
440460.63000061,4464105.28000061,8.22999954,97,255,0,3.000000,21.000000,373174.375000,63.000000,1.000000
440462.95998718,4464103.39999573,8.22000027,97,255,0,3.000000,19.000000,373174.468750,63.000000,1.000000
440462.64998962,4464111.25999634,7.96000004,85,255,0,3.000000,3.000000,373174.468750,63.000000,1.000000
440462.04999878,4464110.11999695,7.98000002,87,255,0,3.000000,19.000000,373174.562500,63.000000,1.000000
440461.27999451,4464103.72999756,7.90999985,84,255,0,3.000000,19.000000,373174.875000,63.000000,1.000000
440463.89998962,4464105.75000183,8.90999985,127,255,0,3.000000,1.000000,373174.875000,63.000000,1.000000
440463.82999756,4464107.36000244,8.22999954,97,255,0,3.000000,17.000000,373174.875000,63.000000,1.000000
440463.22999146,4464107.64000122,8.39999962,105,255,0,3.000000,1.000000,373174.968750,63.000000,1.000000
440465.67998840,4464103.58999817,7.80000019,79,255,0,3.000000,14.000000,373175.062500,63.000000,1.000000
440459.88999512,4464107.67000000,8.36999989,103,255,0,3.000000,3.000000,373175.062500,63.000000,1.000000
440464.35000183,4464103.67000000,8.53999996,111,255,0,3.000000,14.000000,373175.281250,63.000000,1.000000
440462.99999573,4464103.39000122,8.22999954,97,255,0,3.000000,30.000000,373175.562500,63.000000,1.000000
440465.77000000,4464104.49000732,7.84000015,81,255,0,3.000000,12.000000,373175.562500,63.000000,1.000000
440459.25999023,4464107.33999817,8.90999985,127,255,0,3.000000,17.000000,373175.781250,63.000000,1.000000
440463.25999023,4464103.86999695,8.56000042,112,255,0,3.000000,28.000000,373176.062500,63.000000,1.000000
440458.06998779,4464105.75000183,7.80999994,80,255,0,3.000000,30.000000,373176.562500,63.000000,1.000000
440465.65999939,4464103.50999634,7.92999983,85,255,0,3.000000,24.000000,373176.656250,63.000000,1.000000
440465.29999878,4464105.19000427,8.85999966,124,255,0,3.000000,8.000000,373176.656250,63.000000,1.000000
440462.85999634,4464107.89999573,8.47000027,108,255,0,3.000000,8.000000,373176.968750,63.000000,1.000000
440463.24999573,4464102.80000488,8.44999981,107,255,0,3.000000,24.000000,373177.156250,63.000000,1.000000
440459.50999023,4464108.72000305,8.90999985,127,255,0,3.000000,10.000000,373177.156250,63.000000,1.000000
440462.43999817,4464109.13000671,8.00000000,88,255,0,3.000000,24.000000,373177.156250,63.000000,1.000000
440458.52999451,4464106.25999634,7.80999994,80,255,0,3.000000,10.000000,373177.562500,63.000000,1.000000
440461.52000000,4464103.83000366,7.94000006,85,255,0,3.000000,4.000000,373178.781250,51.000000,1.000000
440460.43999817,4464108.89999573,8.13000011,93,255,0,3.000000,4.000000,373178.781250,50.000000,1.000000
440464.08999207,4464102.95999329,8.85999966,124,255,0,3.000000,16.000000,373179.468750,63.000000,1.000000
440462.44999268,4464111.02000610,7.96000004,85,255,0,3.000000,0.000000,373179.468750,63.000000,1.000000
440459.36999084,4464106.75999634,8.27000046,99,255,0,4.000000,31.000000,373229.812500,63.000000,1.000000
440459.06998779,4464108.08000366,8.73999977,119,255,0,4.000000,29.000000,373230.125000,60.000000,1.000000
440459.47999146,4464107.05999939,8.14999962,94,255,0,4.000000,29.000000,373230.218750,59.000000,1.000000
440461.63999512,4464106.27000610,8.38000011,104,255,0,4.000000,31.000000,373230.218750,63.000000,1.000000
440462.95998718,4464107.80999939,7.98999977,87,255,0,4.000000,31.000000,373230.406250,63.000000,1.000000
440462.78998901,4464105.42000000,8.50000000,109,255,0,4.000000,31.000000,373230.500000,63.000000,1.000000
440459.05999329,4464109.11999695,8.40999985,105,255,0,4.000000,11.000000,373230.625000,63.000000,1.000000
440459.79999878,4464108.33000366,8.07999992,91,255,0,4.000000,27.000000,373230.718750,63.000000,1.000000
440463.55999329,4464102.86999695,8.39000034,104,255,0,4.000000,31.000000,373230.718750,63.000000,1.000000
440462.08999207,4464104.72999756,8.44999981,107,255,0,4.000000,29.000000,373230.812500,60.000000,1.000000
440460.47999146,4464106.74000732,8.85999966,124,255,0,4.000000,11.000000,373230.906250,63.000000,1.000000
440459.54999878,4464108.94999878,8.07999992,91,255,0,4.000000,25.000000,373231.000000,63.000000,1.000000
440459.24999573,4464107.72000305,8.78999996,121,255,0,4.000000,9.000000,373231.000000,63.000000,1.000000
440463.42998840,4464104.74000732,8.77000046,121,255,0,4.000000,29.000000,373231.000000,59.000000,1.000000
440463.72999146,4464102.55000488,7.82999992,80,255,0,4.000000,13.000000,373231.125000,59.000000,1.000000
440462.65999939,4464107.84999268,8.75000000,120,255,0,4.000000,11.000000,373231.218750,63.000000,1.000000
440464.49999573,4464104.70999329,8.78999996,121,255,0,4.000000,29.000000,373231.218750,59.000000,1.000000
440464.78998901,4464103.03000061,7.96000004,85,255,0,4.000000,13.000000,373231.312500,59.000000,1.000000
440459.27999451,4464108.97000305,8.42000008,106,255,0,4.000000,7.000000,373231.406250,63.000000,1.000000
440463.63999512,4464105.05999939,8.65999985,116,255,0,4.000000,11.000000,373231.500000,63.000000,1.000000
440460.05999329,4464109.19999878,8.61999989,114,255,0,4.000000,23.000000,373231.625000,63.000000,1.000000
440463.77000000,4464103.38000671,8.18000031,95,255,0,4.000000,27.000000,373231.625000,63.000000,1.000000
440460.00999023,4464105.58000366,8.78999996,121,255,0,4.000000,7.000000,373231.718750,63.000000,1.000000
440457.82999756,4464105.55999939,7.86000013,82,255,0,4.000000,5.000000,373231.718750,63.000000,1.000000
440462.18999817,4464104.69999878,8.44999981,107,255,0,4.000000,25.000000,373231.718750,63.000000,1.000000
440463.03998901,4464104.74000732,8.64999962,115,255,0,4.000000,25.000000,373231.812500,63.000000,1.000000
440462.86999084,4464103.61999695,8.47999954,108,255,0,4.000000,9.000000,373231.812500,63.000000,1.000000
440461.66999390,4464108.59999268,8.57999992,112,255,0,4.000000,23.000000,373231.906250,63.000000,1.000000
440459.28998901,4464107.74000732,8.80000019,122,255,0,4.000000,5.000000,373231.906250,63.000000,1.000000
440460.99000122,4464103.59999268,7.86000013,82,255,0,4.000000,7.000000,373231.906250,63.000000,1.000000
440459.89998962,4464108.52000610,8.60999966,114,255,0,4.000000,21.000000,373232.000000,63.000000,1.000000
440463.99000122,4464105.36000244,8.65999985,116,255,0,4.000000,25.000000,373232.000000,63.000000,1.000000
440461.60999634,4464104.77000610,8.39999962,105,255,0,4.000000,23.000000,373232.031250,63.000000,1.000000
440460.02000000,4464108.75000183,8.81000042,122,255,0,4.000000,5.000000,373232.125000,63.000000,1.000000
440459.95998718,4464108.31999390,8.77000046,121,255,0,4.000000,5.000000,373232.125000,63.000000,1.000000
440463.91999390,4464104.30000488,8.68999958,117,255,0,4.000000,9.000000,373232.125000,63.000000,1.000000
440460.15999939,4464105.27000610,8.18000031,95,255,0,4.000000,5.000000,373232.218750,63.000000,1.000000
440459.07999756,4464109.20999329,8.46000004,107,255,0,4.000000,19.000000,373232.312500,63.000000,1.000000
440463.35000183,4464107.16000549,8.22999954,97,255,0,4.000000,7.000000,373232.312500,63.000000,1.000000
440463.06998779,4464105.36000244,8.50000000,109,255,0,4.000000,7.000000,373232.312500,63.000000,1.000000
440462.81998779,4464103.44000427,8.46000004,107,255,0,4.000000,23.000000,373232.312500,63.000000,1.000000
440462.79999878,4464103.03000061,8.09000015,91,255,0,4.000000,23.000000,373232.312500,63.000000,1.000000
440463.46999695,4464102.52000610,8.05000019,90,255,0,4.000000,23.000000,373232.406250,63.000000,1.000000
440460.22999146,4464108.83999817,8.64000034,115,255,0,4.000000,3.000000,373232.500000,63.000000,1.000000
440464.35999634,4464105.61000244,8.19999981,96,255,0,4.000000,23.000000,373232.531250,63.000000,1.000000
440464.22999146,4464104.86999695,8.68000031,117,255,0,4.000000,7.000000,373232.531250,63.000000,1.000000
440458.53998901,4464107.78999512,8.32999992,102,255,0,4.000000,1.000000,373232.625000,63.000000,1.000000
440462.83999207,4464106.63000671,8.88000011,125,255,0,4.000000,21.000000,373232.625000,63.000000,1.000000
440458.95998718,4464106.41000549,8.13000011,93,255,0,4.000000,1.000000,373232.718750,63.000000,1.000000
440463.14998962,4464104.13000671,8.59000015,113,255,0,4.000000,5.000000,373232.718750,63.000000,1.000000
440465.38000061,4464103.30000488,7.82999992,80,255,0,4.000000,23.000000,373232.718750,63.000000,1.000000
440461.75999023,4464106.66000549,8.68000031,117,255,0,4.000000,19.000000,373232.812500,63.000000,1.000000
440461.58999207,4464105.08999817,8.60000038,113,255,0,4.000000,3.000000,373232.812500,63.000000,1.000000
440463.72999146,4464104.03999512,8.14000034,94,255,0,4.000000,5.000000,373232.812500,63.000000,1.000000
440463.67998840,4464103.61999695,7.94999981,85,255,0,4.000000,5.000000,373232.812500,63.000000,1.000000
440460.27000000,4464106.44999878,8.78999996,121,255,0,4.000000,1.000000,373232.906250,63.000000,1.000000
440462.39998962,4464105.78999512,8.85999966,124,255,0,4.000000,3.000000,373232.906250,63.000000,1.000000
440458.60999634,4464107.58999817,8.14000034,94,255,0,4.000000,30.000000,373233.031250,63.000000,1.000000
440458.52000000,4464106.91000549,7.88999987,83,255,0,4.000000,14.000000,373233.031250,63.000000,1.000000
440462.81998779,4464105.47999756,8.61999989,114,255,0,4.000000,19.000000,373233.031250,63.000000,1.000000
440462.69999268,4464104.36000244,8.22999954,97,255,0,4.000000,3.000000,373233.031250,63.000000,1.000000
440463.45998718,4464106.61000244,8.02999973,88,255,0,4.000000,19.000000,373233.125000,63.000000,1.000000
440463.06998779,4464103.25000183,8.47999954,108,255,0,4.000000,3.000000,373233.125000,63.000000,1.000000
440462.00999023,4464109.31999390,7.86000013,82,255,0,4.000000,17.000000,373233.218750,63.000000,1.000000
440459.63999512,4464107.64000122,8.28999996,100,255,0,4.000000,14.000000,373233.218750,63.000000,1.000000
440459.56998779,4464106.72999756,8.67000008,116,255,0,4.000000,14.000000,373233.218750,63.000000,1.000000
440463.56998779,4464102.97000305,8.43000031,106,255,0,4.000000,3.000000,373233.218750,63.000000,1.000000
440463.54999878,4464102.80000488,8.35000038,103,255,0,4.000000,19.000000,373233.218750,63.000000,1.000000
440462.52999451,4464107.61999695,7.90999985,84,255,0,4.000000,17.000000,373233.312500,63.000000,1.000000
440462.10999634,4464103.59999268,8.06000042,90,255,0,4.000000,17.000000,373233.312500,63.000000,1.000000
440462.05999329,4464103.17999451,7.82000017,80,255,0,4.000000,17.000000,373233.312500,63.000000,1.000000
440462.83999207,4464106.97000305,8.43000031,106,255,0,4.000000,1.000000,373233.406250,63.000000,1.000000
440462.68999817,4464105.50000183,8.30000019,100,255,0,4.000000,17.000000,373233.406250,63.000000,1.000000
440464.80999329,4464104.53999512,8.69999981,118,255,0,4.000000,3.000000,373233.406250,63.000000,1.000000
440459.75999023,4464109.22000305,7.84000015,81,255,0,4.000000,12.000000,373233.625000,63.000000,1.000000
440459.68999817,4464108.61000244,7.82000017,80,255,0,4.000000,28.000000,373233.625000,63.000000,1.000000
440461.58999207,4464104.94000427,8.52999973,110,255,0,4.000000,14.000000,373233.625000,63.000000,1.000000
440463.70998718,4464104.28999512,8.35999966,103,255,0,4.000000,17.000000,373233.625000,63.000000,1.000000
440463.53998901,4464102.72999756,8.27000046,99,255,0,4.000000,1.000000,373233.625000,63.000000,1.000000
440460.03998901,4464106.08000366,8.14999962,94,255,0,4.000000,12.000000,373233.718750,63.000000,1.000000
440460.54999878,4464106.05999939,8.43000031,106,255,0,4.000000,12.000000,373233.812500,63.000000,1.000000
440464.85000183,4464105.16000549,8.81000042,122,255,0,4.000000,17.000000,373233.812500,63.000000,1.000000
440464.72999146,4464104.00000183,8.88000011,125,255,0,4.000000,1.000000,373233.812500,63.000000,1.000000
440461.35999634,4464105.78999512,8.89999962,126,255,0,4.000000,28.000000,373233.906250,63.000000,1.000000
440463.43999817,4464105.20999329,8.57999992,112,255,0,4.000000,30.000000,373233.906250,63.000000,1.000000
440461.04999878,4464103.70999329,7.90999985,84,255,0,4.000000,28.000000,373233.906250,63.000000,1.000000
440460.36999084,4464109.08999817,8.82999992,123,255,0,4.000000,26.000000,373234.125000,63.000000,1.000000
440462.00999023,4464104.53999512,8.13000011,93,255,0,4.000000,28.000000,373234.125000,63.000000,1.000000
440464.13999512,4464103.84999268,8.27000046,99,255,0,4.000000,30.000000,373234.125000,63.000000,1.000000
440458.55999329,4464107.56999390,8.30000019,100,255,0,4.000000,24.000000,373234.218750,63.000000,1.000000
440459.14998962,4464106.42000000,8.13000011,93,255,0,4.000000,24.000000,373234.406250,63.000000,1.000000
440461.08999207,4464103.97999756,7.86000013,82,255,0,4.000000,26.000000,373234.406250,63.000000,1.000000
440460.16999390,4464109.16000549,8.81000042,122,255,0,4.000000,24.000000,373234.500000,63.000000,1.000000
440462.00999023,4464107.00999634,7.98999977,87,255,0,4.000000,10.000000,373234.531250,63.000000,1.000000
440461.89998962,4464105.00000183,8.60999966,114,255,0,4.000000,26.000000,373234.531250,63.000000,1.000000
440464.02999451,4464104.45999329,8.84000015,124,255,0,4.000000,12.000000,373234.531250,63.000000,1.000000
440463.83999207,4464102.97999756,8.77000046,121,255,0,4.000000,28.000000,373234.531250,63.000000,1.000000
440460.38000061,4464105.86999695,8.30000019,100,255,0,4.000000,24.000000,373234.625000,63.000000,1.000000
440462.29999878,4464103.58999817,8.17000008,95,255,0,4.000000,10.000000,373234.625000,63.000000,1.000000
440462.97999146,4464105.99000732,8.55000019,111,255,0,4.000000,10.000000,373234.718750,63.000000,1.000000
440462.86999084,4464105.11999695,8.55000019,111,255,0,4.000000,10.000000,373234.718750,63.000000,1.000000
440462.96999695,4464105.14000122,8.57999992,112,255,0,4.000000,26.000000,373234.812500,63.000000,1.000000
440462.92998840,4464104.69000427,8.68999958,117,255,0,4.000000,26.000000,373234.812500,63.000000,1.000000
440463.28998901,4464105.52000610,8.77000046,121,255,0,4.000000,10.000000,373234.906250,63.000000,1.000000
440462.86999084,4464102.75000183,7.98999977,87,255,0,4.000000,26.000000,373234.906250,63.000000,1.000000
440461.77999451,4464107.09999268,8.77000046,121,255,0,4.000000,24.000000,373235.031250,63.000000,1.000000
440463.75999023,4464105.74000732,8.61999989,114,255,0,4.000000,10.000000,373235.031250,63.000000,1.000000
440463.63000061,4464104.86999695,8.50000000,109,255,0,4.000000,10.000000,373235.031250,63.000000,1.000000
440460.10999634,4464109.00000183,8.64999962,115,255,0,4.000000,22.000000,373235.125000,63.000000,1.000000
440463.97999146,4464104.24000732,8.77000046,121,255,0,4.000000,10.000000,373235.125000,63.000000,1.000000
440463.85000183,4464103.20999329,8.78999996,121,255,0,4.000000,26.000000,373235.125000,63.000000,1.000000
440461.49000122,4464102.83999817,7.86999989,82,255,0,4.000000,8.000000,373235.125000,63.000000,1.000000
440460.35000183,4464106.84999268,8.89000034,126,255,0,4.000000,6.000000,373235.218750,63.000000,1.000000
440462.85999634,4464107.53000061,7.98999977,87,255,0,4.000000,8.000000,373235.312500,63.000000,1.000000
440458.50999023,4464107.84999268,8.40999985,105,255,0,4.000000,20.000000,373235.312500,60.000000,1.000000
440460.74999573,4464106.61000244,8.68999958,117,255,0,4.000000,22.000000,373235.312500,63.000000,1.000000
440463.24000122,4464106.94999878,8.52000046,110,255,0,4.000000,8.000000,373235.406250,63.000000,1.000000
440464.97999146,4464103.61999695,7.80000019,79,255,0,4.000000,10.000000,373235.406250,63.000000,1.000000
440459.11999084,4464106.91000549,8.26000023,99,255,0,4.000000,20.000000,373235.500000,60.000000,1.000000
440463.33999207,4464104.11999695,8.47999954,108,255,0,4.000000,24.000000,373235.531250,63.000000,1.000000
440461.00999023,4464104.00000183,7.94000006,85,255,0,4.000000,22.000000,373235.531250,63.000000,1.000000
440459.77999451,4464106.59999268,8.71000004,118,255,0,4.000000,4.000000,373235.625000,60.000000,1.000000
440462.67998840,4464107.97000305,8.77000046,121,255,0,4.000000,22.000000,373235.718750,63.000000,1.000000
440462.97999146,4464106.45999329,8.86999989,125,255,0,4.000000,6.000000,373235.812500,63.000000,1.000000
440460.49999573,4464105.75000183,7.98999977,87,255,0,4.000000,20.000000,373235.812500,60.000000,1.000000
440462.47999146,4464103.24000732,7.90000010,83,255,0,4.000000,22.000000,373235.812500,63.000000,1.000000
440463.38000061,4464105.25999634,8.56999969,112,255,0,4.000000,6.000000,373235.906250,63.000000,1.000000
440463.27000000,4464104.19000427,8.63000011,115,255,0,4.000000,22.000000,373235.906250,63.000000,1.000000
440465.30999329,4464103.50999634,7.88999987,83,255,0,4.000000,24.000000,373235.906250,63.000000,1.000000
440463.60999634,4464103.66000549,8.10000038,92,255,0,4.000000,6.000000,373236.031250,63.000000,1.000000
440463.53998901,4464102.75999634,8.34000015,102,255,0,4.000000,6.000000,373236.031250,63.000000,1.000000
440460.00999023,4464106.58999817,8.48999977,109,255,0,4.000000,2.000000,373236.125000,100.000000,1.000000
440464.35999634,4464105.86000244,8.21000004,97,255,0,4.000000,22.000000,373236.125000,63.000000,1.000000
440461.77999451,4464103.25999634,7.82000017,80,255,0,4.000000,4.000000,373236.125000,60.000000,1.000000
440463.06998779,4464106.56999390,8.89000034,126,255,0,4.000000,20.000000,373236.312500,60.000000,1.000000
440460.69999268,4464106.45999329,8.35999966,103,255,0,4.000000,18.000000,373236.312500,100.000000,1.000000
440463.27999451,4464107.42000000,8.31999969,101,255,0,4.000000,20.000000,373236.406250,59.000000,1.000000
440463.21999695,4464106.52000610,8.22999954,97,255,0,4.000000,20.000000,373236.406250,59.000000,1.000000
440459.42998840,4464109.17999451,7.94999981,85,255,0,4.000000,16.000000,373236.500000,63.000000,1.000000
440459.39998962,4464108.72000305,8.07999992,91,255,0,4.000000,16.000000,373236.500000,63.000000,1.000000
440459.17998840,4464106.49000732,8.15999985,94,255,0,4.000000,16.000000,373236.531250,63.000000,1.000000
440463.85999634,4464105.58000366,8.89000034,126,255,0,4.000000,4.000000,373236.531250,60.000000,1.000000
440463.78998901,4464105.13000671,8.84000015,124,255,0,4.000000,4.000000,373236.531250,60.000000,1.000000
440463.11999084,4464106.97999756,8.42000008,106,255,0,4.000000,2.000000,373236.718750,100.000000,1.000000
440464.85000183,4464103.17000000,7.94999981,85,255,0,4.000000,4.000000,373236.718750,59.000000,1.000000
440463.38999512,4464105.13000671,8.60999966,114,255,0,4.000000,2.000000,373236.812500,100.000000,1.000000
440465.32999756,4464104.02000610,7.88999987,83,255,0,4.000000,4.000000,373236.812500,59.000000,1.000000
440465.32999756,4464103.55000488,7.84999990,81,255,0,4.000000,4.000000,373236.812500,59.000000,1.000000
440461.28998901,4464104.39999573,8.09000015,91,255,0,4.000000,16.000000,373236.906250,63.000000,1.000000
440461.90999939,4464104.16000549,8.01000023,88,255,0,4.000000,0.000000,373237.125000,63.000000,1.000000
440462.65999939,4464108.55000488,7.86000013,82,255,0,4.000000,16.000000,373237.218750,63.000000,1.000000
440463.10000183,4464105.08999817,8.61999989,114,255,0,4.000000,0.000000,373237.312500,63.000000,1.000000
440463.05999329,4464104.63000671,8.68999958,117,255,0,4.000000,0.000000,373237.312500,63.000000,1.000000
440462.94999268,4464104.03000061,8.57999992,112,255,0,4.000000,16.000000,373237.312500,63.000000,1.000000
440463.52999451,4464106.55999939,8.00000000,88,255,0,4.000000,0.000000,373237.406250,63.000000,1.000000
440463.18999817,4464102.97000305,8.25000000,98,255,0,4.000000,0.000000,373237.406250,63.000000,1.000000
440463.79999878,4464106.70999329,7.98999977,87,255,0,4.000000,0.000000,373237.531250,63.000000,1.000000
440464.41999390,4464105.67000000,8.18999958,96,255,0,4.000000,16.000000,373237.625000,63.000000,1.000000
440464.66999390,4464103.75999634,7.94999981,85,255,0,4.000000,0.000000,373237.718750,63.000000,1.000000
440464.47999146,4464103.00000183,8.48999977,109,255,0,5.000000,15.000000,373296.187500,63.000000,1.000000
440465.46999695,4464103.83999817,8.34000015,102,255,0,5.000000,13.000000,373296.562500,51.000000,1.000000
440464.68999817,4464104.53999512,8.72999954,119,255,0,5.000000,29.000000,373296.687500,51.000000,1.000000
440462.38000061,4464104.05000488,7.82999992,80,255,0,5.000000,13.000000,373297.156250,51.000000,1.000000
440464.13000061,4464104.28000061,8.63000011,115,255,0,5.000000,27.000000,373297.375000,63.000000,1.000000
440460.77000000,4464105.55000488,8.15999985,94,255,0,5.000000,13.000000,373297.375000,51.000000,1.000000
440459.77000000,4464106.63000671,8.02999973,88,255,0,5.000000,13.000000,373297.468750,52.000000,1.000000
440464.86999084,4464103.16000549,8.68999958,117,255,0,5.000000,23.000000,373298.281250,63.000000,1.000000
440464.22999146,4464107.16000549,8.52999973,110,255,0,5.000000,5.000000,373298.781250,63.000000,1.000000
440464.52000000,4464104.84999268,8.89000034,126,255,0,5.000000,5.000000,373298.875000,63.000000,1.000000
440464.42998840,4464102.83999817,8.56000042,112,255,0,5.000000,21.000000,373298.968750,63.000000,1.000000
440461.88999512,4464104.08000366,8.02999973,88,255,0,5.000000,21.000000,373299.375000,63.000000,1.000000
440464.67998840,4464105.50999634,8.72999954,119,255,0,5.000000,3.000000,373299.375000,63.000000,1.000000
440464.36999084,4464108.05999939,7.88000011,83,255,0,5.000000,3.000000,373299.375000,63.000000,1.000000
440460.72999146,4464105.38000671,8.09000015,91,255,0,5.000000,5.000000,373299.687500,63.000000,1.000000
440460.56998779,4464106.44999878,8.14999962,94,255,0,5.000000,21.000000,373299.687500,63.000000,1.000000
440464.70998718,4464102.91000549,8.14000034,94,255,0,5.000000,1.000000,373299.968750,63.000000,1.000000
440464.64998962,4464103.14000122,8.76000023,120,255,0,5.000000,1.000000,373299.968750,63.000000,1.000000
440464.28998901,4464106.97000305,8.36999989,103,255,0,5.000000,17.000000,373299.968750,63.000000,1.000000
440461.25999023,4464106.69999878,8.71000004,118,255,0,5.000000,3.000000,373299.968750,63.000000,1.000000
440462.28998901,4464105.03999512,8.07999992,91,255,0,5.000000,1.000000,373300.375000,63.000000,1.000000
440459.14998962,4464106.25000183,7.94999981,85,255,0,5.000000,19.000000,373300.375000,63.000000,1.000000
440462.15999939,4464103.89000122,7.92000008,84,255,0,5.000000,1.000000,373300.468750,63.000000,1.000000
440464.79999878,4464103.08000366,8.65999985,116,255,0,5.000000,30.000000,373300.562500,63.000000,1.000000
440461.45998718,4464106.74000732,8.68999958,117,255,0,5.000000,1.000000,373300.562500,63.000000,1.000000
440462.81998779,4464111.03000061,8.02999973,88,255,0,5.000000,30.000000,373300.781250,63.000000,1.000000
440462.49999573,4464105.06999390,8.81000042,122,255,0,5.000000,14.000000,373300.875000,63.000000,1.000000
440461.93999817,4464105.63000671,8.14999962,94,255,0,5.000000,30.000000,373300.968750,63.000000,1.000000
440464.60999634,4464102.91000549,8.27000046,99,255,0,5.000000,28.000000,373301.062500,63.000000,1.000000
440463.71999695,4464102.84999268,8.02000046,88,255,0,5.000000,28.000000,373301.281250,63.000000,1.000000
440463.66999390,4464103.05000488,8.28999996,100,255,0,5.000000,12.000000,373301.281250,63.000000,1.000000
440463.61999084,4464103.67000000,8.46000004,107,255,0,5.000000,12.000000,373301.281250,63.000000,1.000000
440465.36999084,4464103.56999390,7.96000004,85,255,0,5.000000,10.000000,373301.687500,63.000000,1.000000
440464.83999207,4464102.92000000,7.86999989,82,255,0,5.000000,8.000000,373302.062500,63.000000,1.000000
440461.61999084,4464106.02000610,8.19999981,96,255,0,5.000000,10.000000,373302.062500,63.000000,1.000000
440465.39998962,4464103.39000122,8.50000000,109,255,0,5.000000,4.000000,373303.281250,52.000000,1.000000
440462.39998962,4464104.78000061,7.98999977,87,255,0,5.000000,22.000000,373303.281250,63.000000,1.000000
440464.60999634,4464104.09999268,8.31999969,101,255,0,5.000000,4.000000,373303.468750,53.000000,1.000000
440458.52999451,4464106.03000061,7.92999983,85,255,0,5.000000,8.000000,373303.468750,63.000000,1.000000
440463.67998840,4464102.84999268,8.28999996,100,255,0,5.000000,20.000000,373303.687500,52.000000,1.000000
440463.67998840,4464103.22000305,8.35000038,103,255,0,5.000000,4.000000,373303.687500,52.000000,1.000000
440463.29999878,4464105.27000610,8.48999977,109,255,0,5.000000,4.000000,373303.781250,53.000000,1.000000
440462.97999146,4464103.09999268,8.15999985,94,255,0,5.000000,4.000000,373303.875000,52.000000,1.000000
440462.92998840,4464104.88000671,8.89000034,126,255,0,5.000000,4.000000,373303.875000,53.000000,1.000000
440461.14998962,4464105.69000427,8.22999954,97,255,0,5.000000,20.000000,373304.062500,53.000000,1.000000
440465.83999207,4464102.97000305,7.84999990,81,255,0,5.000000,0.000000,373304.281250,63.000000,1.000000
440464.66999390,4464103.19999878,8.80000019,122,255,0,5.000000,0.000000,373304.468750,63.000000,1.000000
440465.74000122,4464103.36000244,7.82999992,80,255,0,3.000000,13.000000,373171.250000,45.000000,1.000000
440465.75999023,4464103.61999695,7.80999994,80,255,0,3.000000,29.000000,373171.250000,45.000000,1.000000
440465.36999084,4464103.17000000,7.94000006,85,255,0,3.000000,13.000000,373171.375000,45.000000,1.000000
440463.83999207,4464107.13000671,7.82999992,80,255,0,3.000000,29.000000,373171.656250,47.000000,1.000000
440463.86999084,4464107.56999390,7.90000010,83,255,0,3.000000,13.000000,373171.656250,47.000000,1.000000
440466.03998901,4464104.05000488,7.84000015,81,255,0,3.000000,11.000000,373171.750000,63.000000,1.000000
440465.69999268,4464103.55000488,7.82999992,80,255,0,3.000000,11.000000,373171.875000,63.000000,1.000000
440465.71999695,4464104.03000061,7.80000019,79,255,0,3.000000,11.000000,373171.875000,63.000000,1.000000
440462.72999146,4464111.30999939,7.80999994,80,255,0,3.000000,29.000000,373171.968750,49.000000,1.000000
440464.03998901,4464106.72000305,7.98000002,87,255,0,3.000000,11.000000,373172.281250,63.000000,1.000000
440464.03998901,4464106.94999878,7.94000006,85,255,0,3.000000,27.000000,373172.281250,63.000000,1.000000
440464.06998779,4464107.91000549,7.90999985,84,255,0,3.000000,11.000000,373172.281250,63.000000,1.000000
440466.10000183,4464103.84999268,7.82999992,80,255,0,3.000000,9.000000,373172.375000,63.000000,1.000000
440463.95998718,4464106.63000671,7.92000008,84,255,0,3.000000,9.000000,373172.781250,63.000000,1.000000
440463.96999695,4464106.92000000,7.96999979,86,255,0,3.000000,25.000000,373172.781250,63.000000,1.000000
440463.96999695,4464107.89999573,7.92000008,84,255,0,3.000000,9.000000,373172.781250,63.000000,1.000000
440463.85000183,4464107.45999329,8.02000046,88,255,0,3.000000,23.000000,373173.375000,63.000000,1.000000
440466.04999878,4464103.89000122,7.90000010,83,255,0,3.000000,21.000000,373173.468750,63.000000,1.000000
440462.44999268,4464111.19999878,7.84999990,81,255,0,3.000000,23.000000,373173.562500,63.000000,1.000000
440463.79999878,4464107.92999451,7.94000006,85,255,0,3.000000,5.000000,373173.781250,63.000000,1.000000
440466.10999634,4464103.91000549,7.84000015,81,255,0,3.000000,3.000000,373173.875000,63.000000,1.000000
440465.18999817,4464103.63000671,7.82999992,80,255,0,3.000000,3.000000,373174.156250,63.000000,1.000000
440464.10000183,4464107.52000610,7.88000011,83,255,0,3.000000,3.000000,373174.281250,63.000000,1.000000
440464.08999207,4464107.78000061,7.88000011,83,255,0,3.000000,19.000000,373174.281250,63.000000,1.000000
440465.74000122,4464103.55000488,7.86000013,82,255,0,3.000000,17.000000,373174.468750,63.000000,1.000000
440464.30999329,4464107.22999756,8.01000023,88,255,0,3.000000,17.000000,373174.656250,63.000000,1.000000
440464.13000061,4464106.63000671,7.94000006,85,255,0,3.000000,1.000000,373174.781250,63.000000,1.000000
440464.08999207,4464107.31999390,8.02000046,88,255,0,3.000000,1.000000,373174.781250,63.000000,1.000000
440464.07999756,4464107.55000488,7.98000002,87,255,0,3.000000,17.000000,373174.781250,63.000000,1.000000
440463.80999329,4464107.88000671,8.01000023,88,255,0,3.000000,17.000000,373174.875000,63.000000,1.000000
440463.79999878,4464108.20999329,7.88999987,83,255,0,3.000000,1.000000,373174.875000,63.000000,1.000000
440466.28998901,4464103.88000671,7.86999989,82,255,0,3.000000,14.000000,373174.968750,63.000000,1.000000
440463.10000183,4464110.05999939,7.94000006,85,255,0,3.000000,17.000000,373174.968750,63.000000,1.000000
440464.03998901,4464107.89999573,7.96999979,86,255,0,3.000000,14.000000,373175.281250,63.000000,1.000000
440465.49999573,4464103.53000061,7.84999990,81,255,0,3.000000,28.000000,373175.656250,63.000000,1.000000
440463.19999268,4464109.97000305,7.82999992,80,255,0,3.000000,28.000000,373175.968750,63.000000,1.000000
440464.29999878,4464107.36999695,7.84999990,81,255,0,3.000000,26.000000,373176.281250,63.000000,1.000000
440464.02000000,4464107.86999695,8.00000000,88,255,0,3.000000,26.000000,373176.375000,63.000000,1.000000
440464.11999084,4464107.59999268,7.96999979,86,255,0,3.000000,8.000000,373176.781250,63.000000,1.000000
440462.99000122,4464110.05000488,7.88000011,83,255,0,3.000000,24.000000,373176.875000,63.000000,1.000000
440466.20998718,4464103.94000427,7.84000015,81,255,0,3.000000,6.000000,373177.281250,63.000000,1.000000
440464.17998840,4464107.33999817,7.96999979,86,255,0,3.000000,22.000000,373177.562500,63.000000,1.000000
440464.11999084,4464107.72000305,7.94000006,85,255,0,3.000000,6.000000,373177.562500,63.000000,1.000000
440464.24000122,4464107.45999329,7.90000010,83,255,0,3.000000,20.000000,373178.062500,50.000000,1.000000
440464.10999634,4464107.47999756,8.00000000,88,255,0,3.000000,0.000000,373179.281250,63.000000,1.000000
440464.00999023,4464107.78999512,8.05000019,90,255,0,3.000000,16.000000,373179.281250,63.000000,1.000000
440463.78998901,4464107.39999573,7.96999979,86,255,0,4.000000,27.000000,373231.406250,63.000000,1.000000
440465.93999817,4464103.75000183,8.10999966,92,255,0,4.000000,29.000000,373231.500000,58.000000,1.000000
440465.27999451,4464103.34999268,7.82000017,80,255,0,4.000000,11.000000,373231.812500,63.000000,1.000000
440465.96999695,4464103.75999634,8.05000019,90,255,0,4.000000,9.000000,373232.406250,63.000000,1.000000
440464.81998779,4464103.56999390,7.80000019,79,255,0,4.000000,7.000000,373232.625000,63.000000,1.000000
440464.78998901,4464103.39000122,7.86000013,82,255,0,4.000000,23.000000,373232.625000,63.000000,1.000000
440465.35000183,4464103.28000061,7.82000017,80,255,0,4.000000,21.000000,373233.125000,63.000000,1.000000
440464.70998718,4464103.50999634,7.88000011,83,255,0,4.000000,19.000000,373233.406250,63.000000,1.000000
440465.89998962,4464103.81999390,7.94999981,85,255,0,4.000000,3.000000,373233.625000,63.000000,1.000000
440464.64998962,4464103.44000427,7.88000011,83,255,0,4.000000,17.000000,373233.812500,63.000000,1.000000
440464.74000122,4464103.49000732,7.80000019,79,255,0,4.000000,14.000000,373234.218750,63.000000,1.000000
440463.33999207,4464107.92000000,7.82000017,80,255,0,4.000000,28.000000,373234.312500,63.000000,1.000000
440464.85000183,4464103.53999512,7.82000017,80,255,0,4.000000,12.000000,373234.718750,63.000000,1.000000
440464.93999817,4464103.56999390,7.80000019,79,255,0,4.000000,28.000000,373234.812500,63.000000,1.000000
440463.82999756,4464107.44000427,8.01000023,88,255,0,4.000000,26.000000,373235.000000,63.000000,1.000000
440463.18999817,4464107.97000305,7.84999990,81,255,0,4.000000,8.000000,373235.406250,63.000000,1.000000
440464.93999817,4464103.14999573,7.96000004,85,255,0,4.000000,10.000000,373235.406250,63.000000,1.000000
440463.53998901,4464107.03999512,7.86999989,82,255,0,4.000000,8.000000,373235.500000,63.000000,1.000000
440466.02000000,4464103.84999268,8.11999989,93,255,0,4.000000,26.000000,373235.625000,63.000000,1.000000
440464.69999268,4464103.58000366,7.90000010,83,255,0,4.000000,8.000000,373235.812500,63.000000,1.000000
440465.31998779,4464103.69999878,7.82999992,80,255,0,4.000000,8.000000,373235.906250,63.000000,1.000000
440463.81998779,4464106.66000549,7.90999985,84,255,0,4.000000,22.000000,373236.000000,63.000000,1.000000
440465.79999878,4464103.83999817,7.96000004,85,255,0,4.000000,8.000000,373236.031250,63.000000,1.000000
440464.74999573,4464103.70999329,7.80000019,79,255,0,4.000000,22.000000,373236.312500,63.000000,1.000000
440463.80999329,4464107.49000732,8.06000042,90,255,0,4.000000,4.000000,373236.531250,59.000000,1.000000
440464.89998962,4464103.89000122,7.84000015,81,255,0,4.000000,20.000000,373236.718750,59.000000,1.000000
440464.88999512,4464103.63000671,7.86999989,82,255,0,4.000000,4.000000,373236.718750,59.000000,1.000000
440464.78998901,4464103.00000183,7.90999985,84,255,0,4.000000,20.000000,373236.718750,59.000000,1.000000
440465.33999207,4464103.83000366,7.80999994,80,255,0,4.000000,20.000000,373236.812500,59.000000,1.000000
440464.44999268,4464103.28999512,7.80000019,79,255,0,4.000000,18.000000,373237.218750,100.000000,1.000000
440463.49000122,4464107.50000183,7.84000015,81,255,0,4.000000,0.000000,373237.406250,63.000000,1.000000
440464.61999084,4464103.58999817,7.86000013,82,255,0,4.000000,16.000000,373237.718750,63.000000,1.000000
440465.88000061,4464103.94999878,8.02000046,88,255,0,5.000000,29.000000,373296.468750,51.000000,1.000000
440464.33999207,4464108.31999390,7.86999989,82,255,0,5.000000,13.000000,373296.562500,54.000000,1.000000
440462.97999146,4464111.17999451,7.92000008,84,255,0,5.000000,29.000000,373296.687500,56.000000,1.000000
440466.50999023,4464104.16000549,7.84999990,81,255,0,5.000000,11.000000,373296.968750,63.000000,1.000000
440466.29999878,4464103.53999512,8.13000011,93,255,0,5.000000,27.000000,373297.062500,63.000000,1.000000
440465.90999939,4464103.33999817,7.84999990,81,255,0,5.000000,9.000000,373297.562500,63.000000,1.000000
440464.38000061,4464107.44000427,7.86999989,82,255,0,5.000000,25.000000,373297.656250,63.000000,1.000000
440464.70998718,4464102.97000305,7.90999985,84,255,0,5.000000,9.000000,373297.781250,63.000000,1.000000
440466.13999512,4464103.55999939,7.94999981,85,255,0,5.000000,23.000000,373297.968750,63.000000,1.000000
440465.49999573,4464103.59999268,7.94000006,85,255,0,5.000000,7.000000,373298.062500,63.000000,1.000000
440462.91999390,4464111.06999390,7.80000019,79,255,0,5.000000,7.000000,373298.468750,63.000000,1.000000
440466.27999451,4464103.63000671,8.03999996,89,255,0,5.000000,21.000000,373298.562500,63.000000,1.000000
440464.57999756,4464107.39000122,7.94000006,85,255,0,5.000000,21.000000,373298.656250,63.000000,1.000000
440466.20998718,4464103.53999512,8.17000008,95,255,0,5.000000,3.000000,373299.156250,63.000000,1.000000
440465.68999817,4464103.28999512,7.88999987,83,255,0,5.000000,19.000000,373299.281250,63.000000,1.000000
440466.32999756,4464103.36000244,8.10000038,92,255,0,5.000000,1.000000,373299.781250,63.000000,1.000000
440466.63999512,4464103.94999878,7.80999994,80,255,0,5.000000,14.000000,373300.062500,63.000000,1.000000
440462.92998840,4464110.92999451,8.00000000,88,255,0,5.000000,1.000000,373300.062500,63.000000,1.000000
440465.95998718,4464103.25000183,7.88999987,83,255,0,5.000000,30.000000,373300.156250,63.000000,1.000000
440465.77000000,4464103.24000732,7.94999981,85,255,0,5.000000,14.000000,373300.281250,63.000000,1.000000
440465.74000122,4464103.61999695,7.88000011,83,255,0,5.000000,30.000000,373300.281250,63.000000,1.000000
440464.52000000,4464107.36000244,7.98000002,87,255,0,5.000000,14.000000,373300.562500,63.000000,1.000000
440466.36999084,4464104.11999695,7.92000008,84,255,0,5.000000,12.000000,373300.781250,63.000000,1.000000
440466.69999268,4464103.84999268,7.92999983,85,255,0,5.000000,26.000000,373301.281250,63.000000,1.000000
440466.40999939,4464104.00000183,7.80999994,80,255,0,5.000000,10.000000,373301.375000,63.000000,1.000000
440466.02999451,4464103.58999817,8.07999992,91,255,0,5.000000,26.000000,373301.562500,63.000000,1.000000
440466.04999878,4464104.31999390,7.80999994,80,255,0,5.000000,10.000000,373301.562500,63.000000,1.000000
440465.60000183,4464103.39999573,7.94999981,85,255,0,5.000000,24.000000,373301.968750,63.000000,1.000000
440465.86999084,4464103.19999878,8.13000011,93,255,0,5.000000,6.000000,373302.781250,63.000000,1.000000
440466.08999207,4464103.41000549,8.14999962,94,255,0,5.000000,20.000000,373303.187500,53.000000,1.000000
440465.52999451,4464102.84999268,7.82999992,80,255,0,5.000000,20.000000,373303.281250,52.000000,1.000000
440464.43999817,4464107.27000610,8.02999973,88,255,0,5.000000,4.000000,373303.562500,54.000000,1.000000
440463.82999756,4464102.42999451,7.84999990,81,255,0,5.000000,4.000000,373303.687500,52.000000,1.000000
440465.77000000,4464103.00999634,7.80000019,79,255,0,5.000000,16.000000,373304.281250,63.000000,1.000000
440463.86999084,4464105.00999634,8.71000004,118,255,0,3.000000,15.000000,373171.156250,63.000000,1.000000
440463.16999390,4464104.41000549,8.67000008,116,255,0,3.000000,31.000000,373171.250000,63.000000,1.000000
440463.29999878,4464107.72999756,8.02999973,88,255,0,3.000000,31.000000,373171.250000,63.000000,1.000000
440462.07999756,4464103.02000610,7.92000008,84,255,0,3.000000,31.000000,373171.468750,63.000000,1.000000
440462.63999512,4464111.24000732,8.00000000,88,255,0,3.000000,15.000000,373171.468750,63.000000,1.000000
440464.32999756,4464103.66000549,8.43000031,106,255,0,3.000000,13.000000,373171.562500,46.000000,1.000000
440464.42998840,4464104.53000061,8.69999981,118,255,0,3.000000,13.000000,373171.562500,46.000000,1.000000
440461.99999573,4464110.09999268,8.02999973,88,255,0,3.000000,31.000000,373171.562500,63.000000,1.000000
440463.77000000,4464103.95999329,8.38000011,104,255,0,3.000000,29.000000,373171.656250,46.000000,1.000000
440463.86999084,4464105.09999268,8.78999996,121,255,0,3.000000,13.000000,373171.656250,47.000000,1.000000
440463.88000061,4464105.31999390,8.73999977,119,255,0,3.000000,29.000000,373171.656250,47.000000,1.000000
440463.88000061,4464105.66000549,8.68000031,117,255,0,3.000000,13.000000,373171.656250,47.000000,1.000000
440463.38000061,4464103.69000427,8.47999954,108,255,0,3.000000,13.000000,373171.750000,46.000000,1.000000
440463.39998962,4464103.95999329,8.48999977,109,255,0,3.000000,29.000000,373171.750000,46.000000,1.000000
440463.47999146,4464104.74000732,8.76000023,120,255,0,3.000000,29.000000,373171.750000,47.000000,1.000000
440460.75999023,4464105.39000122,8.10000038,92,255,0,3.000000,31.000000,373171.750000,63.000000,1.000000
440463.49999573,4464105.61000244,8.51000023,109,255,0,3.000000,13.000000,373171.750000,47.000000,1.000000
440463.52000000,4464106.36000244,8.19999981,96,255,0,3.000000,29.000000,373171.750000,47.000000,1.000000
440463.58999207,4464106.94000427,8.44999981,107,255,0,3.000000,13.000000,373171.750000,48.000000,1.000000
440463.61999084,4464107.28000061,8.84000015,124,255,0,3.000000,29.000000,373171.750000,48.000000,1.000000
440463.53998901,4464107.25999634,8.26000023,99,255,0,3.000000,13.000000,373171.750000,48.000000,1.000000
440463.55999329,4464107.80000488,8.11999989,93,255,0,3.000000,13.000000,373171.781250,48.000000,1.000000
440463.00999023,4464103.50000183,8.30000019,100,255,0,3.000000,13.000000,373171.875000,46.000000,1.000000
440462.95998718,4464103.50999634,7.94999981,85,255,0,3.000000,29.000000,373171.875000,46.000000,1.000000
440463.07999756,4464104.25999634,8.56999969,112,255,0,3.000000,13.000000,373171.875000,46.000000,1.000000
440463.10000183,4464104.52000610,8.56000042,112,255,0,3.000000,29.000000,373171.875000,47.000000,1.000000
440463.27999451,4464106.50999634,8.85000038,124,255,0,3.000000,13.000000,373171.875000,48.000000,1.000000
440463.30999329,4464106.80999939,8.90999985,127,255,0,3.000000,29.000000,373171.875000,48.000000,1.000000
440463.20998718,4464107.20999329,8.27000046,99,255,0,3.000000,13.000000,373171.875000,48.000000,1.000000
440463.24999573,4464107.84999268,8.25000000,98,255,0,3.000000,13.000000,373171.875000,48.000000,1.000000
440463.20998718,4464107.86000244,7.92999983,85,255,0,3.000000,29.000000,373171.875000,48.000000,1.000000
440465.19999268,4464104.86000244,8.80000019,122,255,0,3.000000,27.000000,373171.968750,63.000000,1.000000
440461.94999268,4464103.19999878,7.86999989,82,255,0,3.000000,13.000000,373172.062500,46.000000,1.000000
440464.77999451,4464103.69999878,8.86999989,125,255,0,3.000000,27.000000,373172.062500,63.000000,1.000000
440459.77000000,4464109.20999329,8.43000031,106,255,0,3.000000,31.000000,373172.062500,63.000000,1.000000
440462.35000183,4464111.08000366,7.90999985,84,255,0,3.000000,13.000000,373172.062500,49.000000,1.000000
440461.61999084,4464103.86999695,7.84000015,81,255,0,3.000000,13.000000,373172.156250,46.000000,1.000000
440464.41999390,4464104.53999512,8.56000042,112,255,0,3.000000,11.000000,373172.156250,63.000000,1.000000
440461.88000061,4464108.27000610,8.15999985,94,255,0,3.000000,13.000000,373172.156250,48.000000,1.000000
