//X,Y,Z,R,G,B,Point Source ID,User Data,Time,Intensity,Classification
440421.70998718,4464060.17000000,3.98000002,0,170,84,4.000000,19.000000,373226.125000,63.000000,1.000000
440421.60999634,4464059.02000610,2.77999997,0,118,136,4.000000,3.000000,373226.125000,63.000000,1.000000
440421.60999634,4464058.86000244,2.75999999,0,118,136,4.000000,19.000000,373226.125000,63.000000,1.000000
440424.10999634,4464059.25000183,4.44999981,0,190,64,4.000000,21.000000,373226.125000,63.000000,1.000000
440424.08999207,4464058.94999878,4.26999998,0,183,71,4.000000,5.000000,373226.125000,63.000000,1.000000
440418.71999695,4464055.19999878,2.84999990,0,121,133,4.000000,1.000000,373226.125000,63.000000,1.000000
440418.71999695,4464054.95999329,3.97000003,0,169,85,4.000000,1.000000,373226.125000,63.000000,1.000000
440420.47999146,4464060.78000061,3.93000007,0,168,86,4.000000,1.000000,373226.312500,63.000000,1.000000
440422.89998962,4464060.09999268,4.21999979,0,180,74,4.000000,3.000000,373226.312500,63.000000,1.000000
440422.81998779,4464059.17000000,3.82999992,0,163,91,4.000000,19.000000,373226.312500,63.000000,1.000000
440420.99999573,4464060.67000000,3.76999998,0,161,93,4.000000,17.000000,373226.437500,63.000000,1.000000
440420.97999146,4464060.45999329,3.98000002,0,170,84,4.000000,1.000000,373226.437500,63.000000,1.000000
440423.39998962,4464059.59999268,4.03999996,0,172,82,4.000000,19.000000,373226.437500,63.000000,1.000000
440423.35999634,4464059.17999451,4.30000019,0,183,71,4.000000,19.000000,373226.437500,63.000000,1.000000
440420.82999756,4464058.80000488,4.30000019,0,183,71,4.000000,17.000000,373226.437500,63.000000,1.000000
440421.46999695,4464060.06999390,2.38000011,0,101,153,4.000000,17.000000,373226.531250,63.000000,1.000000
440421.54999878,4464060.55999939,3.98000002,0,170,84,4.000000,17.000000,373226.531250,63.000000,1.000000
440421.49999573,4464059.94999878,3.86999989,0,166,88,4.000000,17.000000,373226.531250,63.000000,1.000000
440423.93999817,4464059.47999756,4.23999977,0,181,73,4.000000,19.000000,373226.531250,63.000000,1.000000
440421.41999390,4464059.19000427,4.17000008,0,178,76,4.000000,1.000000,373226.531250,63.000000,1.000000
440423.90999939,4464059.14000122,4.26999998,0,183,71,4.000000,3.000000,373226.531250,63.000000,1.000000
440418.45998718,4464055.39999573,3.73000002,0,160,94,4.000000,14.000000,373226.531250,63.000000,1.000000
440418.40999939,4464054.91000549,3.72000003,0,159,95,4.000000,14.000000,373226.531250,63.000000,1.000000
440422.00999023,4464060.25999634,4.01000023,0,171,83,4.000000,17.000000,373226.625000,63.000000,1.000000
440419.89998962,4464059.99000732,2.90000010,0,124,130,4.000000,30.000000,373226.718750,63.000000,1.000000
440422.49999573,4464060.25000183,4.07000017,0,174,80,4.000000,1.000000,373226.718750,63.000000,1.000000
440422.46999695,4464059.94999878,3.68000007,0,157,97,4.000000,17.000000,373226.718750,63.000000,1.000000
440420.15999939,4464060.06999390,3.11999989,0,133,121,4.000000,14.000000,373226.812500,63.000000,1.000000
440422.60999634,4464058.91000549,3.90000010,0,166,88,4.000000,1.000000,373226.812500,63.000000,1.000000
440420.15999939,4464059.25000183,4.42000008,0,189,65,4.000000,14.000000,373226.812500,63.000000,1.000000
440422.94999268,4464059.16000549,3.99000001,0,171,83,4.000000,17.000000,373226.906250,63.000000,1.000000
440423.38000061,4464060.03999512,2.26999998,0,97,157,4.000000,17.000000,373227.031250,63.000000,1.000000
440423.44999268,4464060.19000427,3.89000010,0,166,88,4.000000,1.000000,373227.031250,63.000000,1.000000
440420.96999695,4464060.30000488,4.03000021,0,172,82,4.000000,14.000000,373227.031250,63.000000,1.000000
440420.92998840,4464060.03999512,4.01000023,0,171,83,4.000000,30.000000,373227.031250,63.000000,1.000000
440423.39998962,4464059.69000427,4.09999990,0,175,79,4.000000,17.000000,373227.031250,63.000000,1.000000
440423.38000061,4464059.38000671,4.13999987,0,177,77,4.000000,1.000000,373227.031250,63.000000,1.000000
440423.36999084,4464059.28999512,4.34999990,0,186,68,4.000000,17.000000,373227.031250,63.000000,1.000000
440421.32999756,4464059.69999878,2.29999995,0,98,156,4.000000,14.000000,373227.125000,63.000000,1.000000
440421.53998901,4464060.59999268,4.03999996,0,172,82,4.000000,30.000000,373227.125000,63.000000,1.000000
440423.85000183,4464059.22000305,2.32999992,0,99,155,4.000000,1.000000,373227.125000,63.000000,1.000000
440423.89998962,4464059.63000671,3.25999999,0,139,115,4.000000,17.000000,373227.125000,63.000000,1.000000
440423.92998840,4464059.59999268,4.11000013,0,175,79,4.000000,17.000000,373227.125000,63.000000,1.000000
440421.42998840,4464059.59999268,4.26999998,0,183,71,4.000000,30.000000,373227.125000,63.000000,1.000000
440418.30999329,4464055.49000732,3.56999993,0,152,102,4.000000,12.000000,373227.125000,63.000000,1.000000
440421.96999695,4464059.72999756,2.27999997,0,97,157,4.000000,14.000000,373227.218750,63.000000,1.000000
440422.65999939,4464060.03000061,4.30999994,0,184,70,4.000000,30.000000,373227.312500,63.000000,1.000000
440420.77999451,4464060.97000305,3.92000008,0,168,86,4.000000,12.000000,373227.406250,63.000000,1.000000
440420.68999817,4464060.36000244,3.89000010,0,166,88,4.000000,12.000000,373227.406250,63.000000,1.000000
440423.18999817,4464060.19000427,4.05999994,0,174,80,4.000000,14.000000,373227.406250,63.000000,1.000000
440423.16999390,4464060.02000610,4.17000008,0,178,76,4.000000,30.000000,373227.406250,63.000000,1.000000
440423.11999084,4464059.42999451,4.42000008,0,189,65,4.000000,14.000000,373227.406250,63.000000,1.000000
440423.04999878,4464058.94999878,3.96000004,0,169,85,4.000000,30.000000,373227.406250,63.000000,1.000000
440420.91999390,4464059.83000366,2.42000008,0,103,151,4.000000,28.000000,373227.531250,63.000000,1.000000
440421.13999512,4464060.30999939,4.09999990,0,175,79,4.000000,28.000000,373227.531250,63.000000,1.000000
440423.60999634,4464059.97999756,4.19000006,0,179,75,4.000000,14.000000,373227.531250,63.000000,1.000000
440423.58999207,4464059.78999512,4.26000023,0,182,72,4.000000,30.000000,373227.531250,63.000000,1.000000
440423.49999573,4464059.19999878,3.92000008,0,168,86,4.000000,14.000000,373227.531250,63.000000,1.000000
440423.47999146,4464058.80000488,4.11999989,0,176,78,4.000000,14.000000,373227.531250,63.000000,1.000000
440420.93999817,4464058.77000610,4.26999998,0,183,71,4.000000,28.000000,373227.531250,63.000000,1.000000
440421.61999084,4464060.08000366,2.29999995,0,98,156,4.000000,12.000000,373227.625000,63.000000,1.000000
440424.22999146,4464059.41000549,4.01999998,0,171,83,4.000000,14.000000,373227.625000,63.000000,1.000000
440424.20998718,4464059.08999817,4.44000006,0,189,65,4.000000,14.000000,373227.625000,63.000000,1.000000
440419.11999084,4464058.91000549,4.42000008,0,189,65,4.000000,10.000000,373227.625000,63.000000,1.000000
440419.02000000,4464058.49000732,4.17999983,0,178,76,4.000000,26.000000,373227.625000,63.000000,1.000000
440418.46999695,4464055.42000000,3.66000009,0,157,97,4.000000,10.000000,373227.625000,63.000000,1.000000
440422.08999207,4464060.03000061,2.31999993,0,99,155,4.000000,28.000000,373227.718750,63.000000,1.000000
440422.30999329,4464060.36999695,4.19000006,0,179,75,4.000000,12.000000,373227.718750,63.000000,1.000000
440422.52000000,4464060.30000488,4.11999989,0,176,78,4.000000,28.000000,373227.812500,63.000000,1.000000
440420.60000183,4464060.78999512,3.92000008,0,168,86,4.000000,26.000000,373227.937500,63.000000,1.000000
440423.03998901,4464060.02000610,4.13999987,0,177,77,4.000000,28.000000,373227.937500,63.000000,1.000000
440422.92998840,4464059.19000427,4.03999996,0,172,82,4.000000,12.000000,373227.937500,63.000000,1.000000
440421.06998779,4464060.66000549,3.91000009,0,167,87,4.000000,10.000000,373228.031250,63.000000,1.000000
440421.05999329,4464060.49000732,4.03000021,0,172,82,4.000000,26.000000,373228.031250,63.000000,1.000000
440423.54999878,4464060.17000000,3.92000008,0,168,86,4.000000,28.000000,373228.031250,63.000000,1.000000
440421.04999878,4464060.19999878,4.11000013,0,175,79,4.000000,10.000000,373228.031250,63.000000,1.000000
440423.45998718,4464059.24000732,4.01000023,0,171,83,4.000000,28.000000,373228.031250,63.000000,1.000000
440421.52000000,4464060.08000366,2.45000005,0,104,150,4.000000,10.000000,373228.125000,63.000000,1.000000
440421.70998718,4464060.36999695,3.76999998,0,161,93,4.000000,10.000000,373228.125000,63.000000,1.000000
440421.71999695,4464060.28999512,4.01999998,0,171,83,4.000000,26.000000,373228.125000,63.000000,1.000000
440423.97999146,4464059.08000366,2.36999989,0,101,153,4.000000,28.000000,373228.125000,63.000000,1.000000
440424.20998718,4464059.47999756,4.30999994,0,184,70,4.000000,12.000000,373228.125000,63.000000,1.000000
440422.18999817,4464060.34999268,2.24000001,0,95,159,4.000000,10.000000,373228.218750,63.000000,1.000000
440422.46999695,4464060.36999695,4.38999987,0,188,66,4.000000,26.000000,373228.218750,63.000000,1.000000
440419.10999634,4464055.72000305,4.38000011,0,187,67,4.000000,8.000000,373228.218750,63.000000,1.000000
440422.60999634,4464059.92999451,4.09999990,0,175,79,4.000000,10.000000,373228.312500,63.000000,1.000000
440420.50999023,4464060.83999817,3.98000002,0,170,84,4.000000,24.000000,373228.437500,63.000000,1.000000
440422.96999695,4464060.24000732,4.11000013,0,175,79,4.000000,10.000000,373228.437500,63.000000,1.000000
440420.81998779,4464060.94999878,3.93000007,0,168,86,4.000000,8.000000,373228.531250,63.000000,1.000000
440420.60000183,4464060.28000061,3.24000001,0,139,115,4.000000,24.000000,373228.531250,63.000000,1.000000
440423.21999695,4464059.77000610,4.07999992,0,174,80,4.000000,10.000000,373228.531250,63.000000,1.000000
440423.27000000,4464059.69999878,4.32000017,0,185,69,4.000000,26.000000,373228.531250,63.000000,1.000000
440421.00999023,4464059.95999329,2.34999990,0,100,154,4.000000,8.000000,373228.625000,63.000000,1.000000
440423.77000000,4464059.72999756,3.41000009,0,145,109,4.000000,26.000000,373228.625000,63.000000,1.000000
440423.79999878,4464059.61999695,3.80999994,0,163,91,4.000000,10.000000,373228.625000,63.000000,1.000000
440421.33999207,4464059.89999573,4.38999987,0,188,66,4.000000,24.000000,373228.625000,63.000000,1.000000
440423.88000061,4464059.67999451,4.23999977,0,181,73,4.000000,26.000000,373228.625000,63.000000,1.000000
440421.74999573,4464060.22999756,2.68000007,0,114,140,4.000000,8.000000,373228.718750,63.000000,1.000000
440421.72999146,4464060.03999512,2.75999999,0,118,136,4.000000,24.000000,373228.718750,63.000000,1.000000
440422.00999023,4464060.50999634,4.07999992,0,174,80,4.000000,8.000000,373228.718750,63.000000,1.000000
440422.07999756,4464060.03000061,2.23000002,0,95,159,4.000000,8.000000,373228.812500,63.000000,1.000000
440422.38999512,4464060.03000061,4.38000011,0,187,67,4.000000,24.000000,373228.812500,63.000000,1.000000
440420.57999756,4464060.88000671,4.07000017,0,174,80,4.000000,22.000000,373228.937500,63.000000,1.000000
440423.03998901,4464060.20999329,4.05000019,0,173,81,4.000000,8.000000,373228.937500,63.000000,1.000000
440422.90999939,4464059.42000000,3.85999990,0,165,89,4.000000,24.000000,373228.937500,63.000000,1.000000
440421.24000122,4464060.72000305,4.15000010,0,177,77,4.000000,6.000000,373229.031250,63.000000,1.000000
440421.15999939,4464060.42000000,4.07999992,0,174,80,4.000000,22.000000,373229.031250,63.000000,1.000000
440423.68999817,4464059.80999939,4.17000008,0,178,76,4.000000,24.000000,373229.031250,63.000000,1.000000
440420.93999817,4464059.38000671,3.90000010,0,166,88,4.000000,6.000000,373229.031250,63.000000,1.000000
440423.58999207,4464059.33000366,4.00000000,0,171,83,4.000000,8.000000,373229.031250,63.000000,1.000000
440423.44999268,4464058.19999878,4.32999992,0,185,69,4.000000,24.000000,373229.031250,63.000000,1.000000
440421.66999390,4464060.47000305,3.79999995,0,163,91,4.000000,22.000000,373229.125000,63.000000,1.000000
440423.88000061,4464059.34999268,2.24000001,0,95,159,4.000000,24.000000,373229.125000,63.000000,1.000000
440421.66999390,4464060.27000610,4.03000021,0,172,82,4.000000,6.000000,373229.125000,63.000000,1.000000
440424.25999023,4464059.61999695,4.40999985,0,189,65,4.000000,24.000000,373229.125000,63.000000,1.000000
440418.64998962,4464058.36000244,4.32000017,0,185,69,4.000000,4.000000,373229.125000,53.000000,1.000000
440422.04999878,4464060.52000610,2.23000002,0,95,159,4.000000,6.000000,373229.218750,63.000000,1.000000
440421.97999146,4464060.05999939,2.46000004,0,105,149,4.000000,6.000000,373229.218750,63.000000,1.000000
440421.99999573,4464059.91000549,2.28999996,0,97,157,4.000000,22.000000,373229.218750,63.000000,1.000000
440422.70998718,4464060.27000610,4.11999989,0,176,78,4.000000,6.000000,373229.312500,63.000000,1.000000
440422.74999573,4464060.19999878,4.38000011,0,187,67,4.000000,22.000000,373229.312500,63.000000,1.000000
440420.69999268,4464060.75000183,3.97000003,0,169,85,4.000000,4.000000,373229.437500,54.000000,1.000000
440423.22999146,4464060.19999878,3.98000002,0,170,84,4.000000,22.000000,373229.437500,63.000000,1.000000
440423.21999695,4464059.83000366,4.03000021,0,172,82,4.000000,22.000000,373229.437500,63.000000,1.000000
440423.24999573,4464059.67000000,4.32999992,0,185,69,4.000000,6.000000,373229.437500,63.000000,1.000000
440420.97999146,4464060.88000671,3.81999993,0,163,91,4.000000,4.000000,373229.531250,54.000000,1.000000
440420.93999817,4464060.67999451,3.88000011,0,166,88,4.000000,20.000000,373229.531250,54.000000,1.000000
440420.75999023,4464060.00999634,3.69000006,0,157,97,4.000000,20.000000,373229.531250,53.000000,1.000000
440423.46999695,4464059.56999390,4.09999990,0,175,79,4.000000,22.000000,373229.531250,63.000000,1.000000
440423.36999084,4464059.02000610,4.21999979,0,180,74,4.000000,22.000000,373229.531250,63.000000,1.000000
440421.10999634,4464060.05000488,2.45000005,0,104,150,4.000000,20.000000,373229.625000,53.000000,1.000000
440423.72999146,4464059.44999878,2.24000001,0,95,159,4.000000,6.000000,373229.625000,63.000000,1.000000
440421.45998718,4464060.14000122,4.00000000,0,171,83,4.000000,4.000000,373229.625000,54.000000,1.000000
440423.94999268,4464059.59999268,3.33999991,0,142,112,4.000000,6.000000,373229.625000,63.000000,1.000000
440423.91999390,4464059.39999573,3.41000009,0,145,109,4.000000,22.000000,373229.625000,63.000000,1.000000
440424.08999207,4464059.53999512,4.15000010,0,177,77,4.000000,6.000000,373229.625000,63.000000,1.000000
440421.42998840,4464059.58000366,4.34000015,0,186,68,4.000000,20.000000,373229.625000,54.000000,1.000000
440420.30999329,4464055.41000549,3.22000003,0,137,117,4.000000,20.000000,373229.625000,51.000000,1.000000
440422.88000061,4464060.27000610,4.30000019,0,183,71,4.000000,20.000000,373229.812500,54.000000,1.000000
440422.24999573,4464058.55000488,2.94000006,0,125,129,4.000000,4.000000,373229.812500,52.000000,1.000000
440422.52999451,4464058.97999756,3.91000009,0,167,87,4.000000,20.000000,373229.812500,53.000000,1.000000
440420.90999939,4464060.89000122,3.80999994,0,163,91,4.000000,2.000000,373229.937500,100.000000,1.000000
440423.43999817,4464060.08000366,3.93000007,0,168,86,4.000000,4.000000,373229.937500,54.000000,1.000000
440423.43999817,4464059.39000122,4.40999985,0,189,65,4.000000,4.000000,373229.937500,54.000000,1.000000
440423.30999329,4464059.00999634,4.21999979,0,180,74,4.000000,20.000000,373229.937500,53.000000,1.000000
440423.43999817,4464060.00000183,2.26999998,0,97,157,4.000000,4.000000,373230.031250,53.000000,1.000000
440421.25999023,4464060.66000549,4.05000019,0,173,81,4.000000,18.000000,373230.031250,100.000000,1.000000
440423.38000061,4464059.36999695,2.31999993,0,99,155,4.000000,20.000000,373230.031250,52.000000,1.000000
440423.66999390,4464059.74000732,3.39000010,0,145,109,4.000000,4.000000,373230.031250,53.000000,1.000000
440423.74999573,4464059.80000488,3.82999992,0,163,91,4.000000,20.000000,373230.031250,54.000000,1.000000
440423.83999207,4464059.69999878,4.23000002,0,180,74,4.000000,4.000000,373230.031250,54.000000,1.000000
440423.75999023,4464059.34999268,2.27999997,0,97,157,4.000000,4.000000,373230.125000,52.000000,1.000000
440421.45998718,4464059.66000549,4.26000023,0,182,72,4.000000,2.000000,373230.125000,100.000000,1.000000
440424.14998962,4464059.27000610,4.32000017,0,185,69,4.000000,20.000000,373230.125000,54.000000,1.000000
440424.14998962,4464057.59999268,4.13000011,0,177,77,4.000000,4.000000,373230.218750,53.000000,1.000000
440421.93999817,4464060.08000366,2.55999994,0,109,145,4.000000,18.000000,373230.437500,99.000000,1.000000
440422.44999268,4464060.53000061,4.15999985,0,177,77,4.000000,18.000000,373230.437500,100.000000,1.000000
440424.11999084,4464053.22000305,4.05000019,0,173,81,4.000000,20.000000,373230.625000,51.000000,1.000000
440420.95998718,4464060.56999390,4.05000019,0,173,81,4.000000,0.000000,373230.718750,63.000000,1.000000
440420.91999390,4464059.95999329,2.47000003,0,105,149,4.000000,0.000000,373230.812500,63.000000,1.000000
440421.56998779,4464060.72999756,4.07000017,0,174,80,4.000000,16.000000,373230.812500,63.000000,1.000000
440421.35999634,4464060.08000366,4.05000019,0,173,81,4.000000,16.000000,373230.812500,63.000000,1.000000
440421.27999451,4464059.75999634,4.00000000,0,171,83,4.000000,0.000000,373230.812500,63.000000,1.000000
440421.33999207,4464059.70999329,4.28000021,0,183,71,4.000000,16.000000,373230.812500,63.000000,1.000000
440421.41999390,4464060.22000305,2.41000009,0,103,151,4.000000,0.000000,373230.937500,63.000000,1.000000
440421.32999756,4464059.94999878,2.27999997,0,97,157,4.000000,16.000000,373230.937500,63.000000,1.000000
440422.00999023,4464060.70999329,4.09999990,0,175,79,4.000000,0.000000,373230.937500,63.000000,1.000000
440424.10000183,4464057.53000061,4.07000017,0,174,80,4.000000,18.000000,373230.937500,99.000000,1.000000
440422.80999329,4464060.42999451,4.11999989,0,176,78,4.000000,0.000000,373231.031250,63.000000,1.000000
440422.82999756,4464060.30000488,4.28999996,0,183,71,4.000000,16.000000,373231.031250,63.000000,1.000000
440423.28998901,4464060.03000061,4.42000008,0,189,65,4.000000,16.000000,373231.125000,63.000000,1.000000
440423.27999451,4464059.77000610,4.34999990,0,186,68,4.000000,0.000000,373231.125000,63.000000,1.000000
440423.29999878,4464060.06999390,2.27999997,0,97,157,4.000000,16.000000,373231.218750,63.000000,1.000000
440423.24000122,4464059.61999695,2.25000000,0,96,158,4.000000,16.000000,373231.218750,63.000000,1.000000
440423.85999634,4464059.80000488,4.32999992,0,185,69,4.000000,16.000000,373231.218750,63.000000,1.000000
440423.60999634,4464059.39000122,2.35999990,0,100,154,4.000000,16.000000,373231.312500,63.000000,1.000000
440423.91999390,4464059.47000305,3.43000007,0,146,108,4.000000,16.000000,373231.312500,63.000000,1.000000
440423.93999817,4464060.30000488,4.28999996,0,183,71,5.000000,15.000000,373305.562500,63.000000,1.000000
440424.03998901,4464052.78999512,3.23000002,0,138,116,5.000000,31.000000,373305.750000,58.000000,1.000000
440424.02000000,4464053.03000061,3.18000007,0,136,118,5.000000,15.000000,373305.750000,58.000000,1.000000
440423.56998779,4464052.53000061,3.26999998,0,139,115,5.000000,31.000000,373305.875000,58.000000,1.000000
440423.52000000,4464052.77000610,3.15000010,0,134,120,5.000000,15.000000,373305.875000,59.000000,1.000000
440423.66999390,4464053.14000122,3.90000010,0,166,88,5.000000,15.000000,373305.875000,53.000000,1.000000
440422.42998840,4464060.50000183,4.15000010,0,177,77,5.000000,15.000000,373305.875000,63.000000,1.000000
440423.40999939,4464053.00999634,3.88000011,0,166,88,5.000000,31.000000,373305.968750,53.000000,1.000000
440422.11999084,4464060.61999695,4.03999996,0,172,82,5.000000,15.000000,373305.968750,63.000000,1.000000
440423.16999390,4464052.88000671,4.26000023,0,182,72,5.000000,15.000000,373306.062500,51.000000,1.000000
440423.10000183,4464053.05000488,3.91000009,0,167,87,5.000000,31.000000,373306.062500,53.000000,1.000000
440424.07999756,4464060.19999878,3.93000007,0,168,86,5.000000,29.000000,373306.062500,63.000000,1.000000
440421.77000000,4464060.84999268,3.91000009,0,167,87,5.000000,31.000000,373306.062500,63.000000,1.000000
440421.72999146,4464061.11000244,3.82999992,0,163,91,5.000000,15.000000,373306.062500,63.000000,1.000000
440422.67998840,4464052.53999512,4.01999998,0,171,83,5.000000,15.000000,373306.156250,52.000000,1.000000
440422.63999512,4464052.70999329,3.91000009,0,167,87,5.000000,31.000000,373306.156250,53.000000,1.000000
440424.15999939,4464057.09999268,4.21999979,0,180,74,5.000000,13.000000,373306.156250,55.000000,1.000000
440422.44999268,4464052.17000000,3.66000009,0,157,97,5.000000,15.000000,373306.250000,54.000000,1.000000
440422.46999695,4464052.31999390,3.82999992,0,163,91,5.000000,31.000000,373306.250000,53.000000,1.000000
440421.83999207,4464055.42000000,2.93000007,0,125,129,5.000000,15.000000,373306.250000,63.000000,1.000000
440422.00999023,4464052.24000732,4.05000019,0,173,81,5.000000,31.000000,373306.375000,51.000000,1.000000
440423.92998840,4464052.67999451,3.44000006,0,147,107,5.000000,13.000000,373306.375000,109.000000,1.000000
440423.90999939,4464052.83999817,3.42000008,0,146,108,5.000000,29.000000,373306.375000,109.000000,1.000000
440421.96999695,4464052.64000122,4.03999996,0,172,82,5.000000,31.000000,373306.375000,52.000000,1.000000
440423.91999390,4464053.59999268,3.85999990,0,165,89,5.000000,29.000000,373306.375000,106.000000,1.000000
440423.88000061,4464053.83000366,3.82999992,0,163,91,5.000000,13.000000,373306.375000,51.000000,1.000000
440423.07999756,4464059.11999695,4.05999994,0,174,80,5.000000,13.000000,373306.375000,61.000000,1.000000
440421.04999878,4464052.14999573,3.03999996,0,130,124,5.000000,31.000000,373306.468750,59.000000,1.000000
440423.36999084,4464052.64999573,4.32000017,0,185,69,5.000000,29.000000,373306.468750,48.000000,1.000000
440422.10999634,4464060.67999451,4.11000013,0,175,79,5.000000,13.000000,373306.468750,119.000000,1.000000
440420.58999207,4464052.34999268,4.21999979,0,180,74,5.000000,31.000000,373306.562500,52.000000,1.000000
440420.43999817,4464053.52000610,4.36000013,0,186,68,5.000000,31.000000,373306.562500,53.000000,1.000000
440422.08999207,4464052.17000000,4.13000011,0,177,77,5.000000,13.000000,373306.656250,49.000000,1.000000
440422.08999207,4464052.31999390,4.23999977,0,181,73,5.000000,29.000000,373306.656250,105.000000,1.000000
440423.96999695,4464052.75000183,3.43000007,0,146,108,5.000000,11.000000,373306.656250,52.000000,1.000000
440421.99000122,4464052.56999390,3.79999995,0,163,91,5.000000,13.000000,373306.656250,51.000000,1.000000
440423.94999268,4464052.91000549,3.35999990,0,143,111,5.000000,27.000000,373306.656250,52.000000,1.000000
440424.05999329,4464053.11000244,4.11999989,0,176,78,5.000000,11.000000,373306.656250,47.000000,1.000000
440421.97999146,4464052.94999878,3.92000008,0,168,86,5.000000,13.000000,373306.656250,51.000000,1.000000
440424.02999451,4464053.50999634,4.19999981,0,180,74,5.000000,11.000000,373306.656250,47.000000,1.000000
440423.63999512,4464052.56999390,3.38000011,0,145,109,5.000000,11.000000,373306.750000,52.000000,1.000000
440421.74000122,4464052.36999695,4.32000017,0,185,69,5.000000,13.000000,373306.750000,105.000000,1.000000
440421.68999817,4464052.53000061,4.13999987,0,177,77,5.000000,29.000000,373306.750000,50.000000,1.000000
440423.60000183,4464052.97000305,3.32999992,0,142,112,5.000000,11.000000,373306.750000,52.000000,1.000000
440421.68999817,4464052.75999634,4.23999977,0,181,73,5.000000,13.000000,373306.750000,49.000000,1.000000
440421.66999390,4464052.92000000,4.21000004,0,180,74,5.000000,29.000000,373306.750000,49.000000,1.000000
440422.60999634,4464060.53000061,3.78999996,0,162,92,5.000000,27.000000,373306.781250,63.000000,1.000000
440421.14998962,4464052.19000427,3.01999998,0,129,125,5.000000,13.000000,373306.875000,57.000000,1.000000
440423.21999695,4464052.74000732,3.20000005,0,136,118,5.000000,11.000000,373306.875000,53.000000,1.000000
440423.11999084,4464052.92999451,2.60999990,0,111,143,5.000000,27.000000,373306.875000,57.000000,1.000000
440419.05999329,4464053.33000366,3.92000008,0,168,86,5.000000,31.000000,373306.875000,56.000000,1.000000
440419.02999451,4464053.56999390,3.92000008,0,168,86,5.000000,15.000000,373306.875000,56.000000,1.000000
440422.24000122,4464060.64999573,4.15999985,0,177,77,5.000000,27.000000,373306.875000,62.000000,1.000000
440420.89998962,4464052.86999695,3.69000006,0,157,97,5.000000,29.000000,373306.968750,53.000000,1.000000
440420.56998779,4464055.25000183,3.91000009,0,167,87,5.000000,29.000000,373306.968750,56.000000,1.000000
440420.18999817,4464057.58999817,3.73000002,0,160,94,5.000000,13.000000,373306.968750,62.000000,1.000000
440421.88999512,4464060.84999268,3.89000010,0,166,88,5.000000,27.000000,373306.968750,63.000000,1.000000
440422.65999939,4464052.00999634,3.45000005,0,148,106,5.000000,27.000000,373307.062500,51.000000,1.000000
440422.66999390,4464052.24000732,3.76999998,0,161,93,5.000000,11.000000,373307.062500,98.000000,1.000000
440422.69999268,4464052.38000671,4.09999990,0,175,79,5.000000,27.000000,373307.062500,94.000000,1.000000
440424.17998840,4464056.94999878,4.21999979,0,180,74,5.000000,25.000000,373307.062500,51.000000,1.000000
440423.68999817,4464060.31999390,4.17999983,0,178,76,5.000000,25.000000,373307.062500,59.000000,1.000000
440422.05999329,4464052.14999573,4.07999992,0,174,80,5.000000,27.000000,373307.156250,47.000000,1.000000
440423.94999268,4464052.74000732,3.35999990,0,143,111,5.000000,25.000000,373307.156250,50.000000,1.000000
440421.99000122,4464052.55000488,3.86999989,0,166,88,5.000000,27.000000,373307.156250,98.000000,1.000000
440419.95998718,4464052.59999268,4.15999985,0,177,77,5.000000,13.000000,373307.156250,50.000000,1.000000
440424.03998901,4464053.08000366,4.44999981,0,190,64,5.000000,25.000000,373307.156250,43.000000,1.000000
440424.00999023,4464053.30999939,4.44000006,0,189,65,5.000000,9.000000,373307.156250,43.000000,1.000000
440423.95998718,4464053.49000732,4.01000023,0,171,83,5.000000,25.000000,373307.156250,46.000000,1.000000
440423.90999939,4464053.75000183,3.84999990,0,165,89,5.000000,9.000000,373307.156250,47.000000,1.000000
440419.50999023,4464053.66000549,2.47000003,0,105,149,5.000000,29.000000,373307.156250,62.000000,1.000000
440419.52000000,4464055.39999573,4.15000010,0,177,77,5.000000,13.000000,373307.156250,55.000000,1.000000
440423.18999817,4464059.05999939,4.01999998,0,171,83,5.000000,9.000000,373307.156250,57.000000,1.000000
440423.27999451,4464052.45999329,3.05999994,0,130,124,5.000000,25.000000,373307.250000,53.000000,1.000000
440422.32999756,4464060.58000366,4.25000000,0,181,73,5.000000,25.000000,373307.281250,60.000000,1.000000
440422.25999023,4464060.88000671,3.96000004,0,169,85,5.000000,9.000000,373307.281250,62.000000,1.000000
440422.24999573,4464061.03000061,4.23999977,0,181,73,5.000000,25.000000,373307.281250,62.000000,1.000000
440422.88999512,4464051.99000732,3.25000000,0,139,115,5.000000,9.000000,373307.375000,49.000000,1.000000
440422.88999512,4464052.16000549,3.74000001,0,160,94,5.000000,25.000000,373307.375000,48.000000,1.000000
440420.74000122,4464052.39999573,3.28999996,0,140,114,5.000000,27.000000,373307.375000,53.000000,1.000000
440420.82999756,4464052.59999268,4.03999996,0,172,82,5.000000,11.000000,373307.375000,48.000000,1.000000
440420.52000000,4464053.84999268,3.07999992,0,131,123,5.000000,11.000000,373307.375000,57.000000,1.000000
440420.45998718,4464054.03999512,2.95000005,0,126,128,5.000000,27.000000,373307.375000,59.000000,1.000000
440420.08999207,4464057.27000610,3.58999991,0,154,100,5.000000,27.000000,373307.375000,60.000000,1.000000
440420.10000183,4464057.99000732,4.32000017,0,185,69,5.000000,27.000000,373307.375000,56.000000,1.000000
440422.45998718,4464052.08999817,3.58999991,0,154,100,5.000000,9.000000,373307.468750,49.000000,1.000000
440422.45998718,4464052.47000305,3.94000006,0,169,85,5.000000,9.000000,373307.468750,47.000000,1.000000
440422.44999268,4464052.61999695,4.01000023,0,171,83,5.000000,25.000000,373307.468750,46.000000,1.000000
440419.60999634,4464058.33000366,4.19000006,0,179,75,5.000000,11.000000,373307.468750,58.000000,1.000000
440423.85000183,4464052.69999878,3.45000005,0,148,106,5.000000,7.000000,373307.562500,49.000000,1.000000
440421.88000061,4464052.52000610,3.88000011,0,166,88,5.000000,9.000000,373307.562500,47.000000,1.000000
440423.82999756,4464052.86000244,3.47000003,0,148,106,5.000000,23.000000,373307.562500,49.000000,1.000000
440423.85999634,4464053.06999390,4.00000000,0,171,83,5.000000,7.000000,373307.562500,45.000000,1.000000
440421.81998779,4464052.91000549,3.69000006,0,157,97,5.000000,9.000000,373307.562500,48.000000,1.000000
440423.77000000,4464053.63000671,3.76999998,0,161,93,5.000000,23.000000,373307.562500,47.000000,1.000000
440421.38000061,4464055.56999390,2.94000006,0,125,129,5.000000,25.000000,373307.562500,59.000000,1.000000
440419.40999939,4464055.31999390,3.79999995,0,163,91,5.000000,27.000000,373307.562500,56.000000,1.000000
440422.02000000,4464060.61999695,4.05000019,0,173,81,5.000000,23.000000,373307.656250,60.000000,1.000000
440422.49000122,4464052.28000061,3.50000000,0,149,105,5.000000,7.000000,373307.750000,49.000000,1.000000
440422.50999023,4464052.42999451,3.97000003,0,169,85,5.000000,23.000000,373307.750000,46.000000,1.000000
440420.52999451,4464052.25000183,4.25000000,0,181,73,5.000000,25.000000,373307.750000,46.000000,1.000000
440422.49000122,4464052.69000427,3.94000006,0,169,85,5.000000,7.000000,373307.750000,46.000000,1.000000
440423.65999939,4464060.19000427,4.40000010,0,188,66,5.000000,5.000000,373307.781250,56.000000,1.000000
440422.02000000,4464052.25999634,4.19000006,0,179,75,5.000000,7.000000,373307.875000,44.000000,1.000000
440423.92998840,4464052.86000244,3.43000007,0,146,108,5.000000,5.000000,373307.875000,114.000000,1.000000
440421.96999695,4464052.66000549,4.03999996,0,172,82,5.000000,7.000000,373307.875000,45.000000,1.000000
440423.94999268,4464052.99000732,4.09000015,0,174,80,5.000000,21.000000,373307.875000,44.000000,1.000000
440421.93999817,4464052.83000366,3.88000011,0,166,88,5.000000,23.000000,373307.875000,46.000000,1.000000
440423.86999084,4464053.61999695,3.91000009,0,167,87,5.000000,5.000000,373307.875000,111.000000,1.000000
440423.80999329,4464054.19000427,3.85999990,0,165,89,5.000000,21.000000,373307.875000,47.000000,1.000000
440421.53998901,4464055.55999939,3.21000004,0,137,117,5.000000,7.000000,373307.875000,56.000000,1.000000
440419.60000183,4464055.28999512,4.25000000,0,181,73,5.000000,9.000000,373307.875000,52.000000,1.000000
440423.63000061,4464052.44999878,3.38000011,0,145,109,5.000000,5.000000,373307.968750,49.000000,1.000000
440421.68999817,4464052.25000183,4.40000010,0,188,66,5.000000,7.000000,373307.968750,44.000000,1.000000
440421.65999939,4464052.41000549,4.26000023,0,182,72,5.000000,23.000000,373307.968750,45.000000,1.000000
440421.49000122,4464053.09999268,2.96000004,0,126,128,5.000000,7.000000,373307.968750,53.000000,1.000000
440423.52000000,4464053.75999634,3.90000010,0,166,88,5.000000,21.000000,373307.968750,45.000000,1.000000
440419.10999634,4464055.39999573,2.79999995,0,119,135,5.000000,9.000000,373307.968750,61.000000,1.000000
440418.99999573,4464055.86000244,2.30999994,0,98,156,5.000000,9.000000,373307.968750,63.000000,1.000000
440423.21999695,4464052.92000000,4.07000017,0,174,80,5.000000,21.000000,373308.062500,45.000000,1.000000
440422.36999084,4464060.53999512,4.26999998,0,183,71,5.000000,5.000000,373308.062500,58.000000,1.000000
440422.31998779,4464060.99000732,4.11999989,0,176,78,5.000000,5.000000,373308.062500,59.000000,1.000000
440422.74999573,4464052.05999939,3.43000007,0,146,108,5.000000,21.000000,373308.156250,48.000000,1.000000
440422.74000122,4464052.44000427,4.13999987,0,177,77,5.000000,21.000000,373308.156250,109.000000,1.000000
440422.71999695,4464052.67999451,4.01999998,0,171,83,5.000000,5.000000,373308.156250,45.000000,1.000000
440420.08999207,4464057.92000000,4.34999990,0,186,68,5.000000,23.000000,373308.156250,53.000000,1.000000
440421.82999756,4464060.69000427,3.86999989,0,166,88,5.000000,21.000000,373308.156250,60.000000,1.000000
440421.79999878,4464060.92999451,4.00000000,0,171,83,5.000000,5.000000,373308.156250,60.000000,1.000000
440422.31998779,4464052.36999695,3.97000003,0,169,85,5.000000,21.000000,373308.250000,45.000000,1.000000
440422.29999878,4464052.61999695,4.01999998,0,171,83,5.000000,5.000000,373308.250000,45.000000,1.000000
440424.27000000,4464052.95999329,3.59999990,0,154,100,5.000000,19.000000,373308.250000,47.000000,1.000000
440424.24999573,4464053.19000427,3.52999997,0,151,103,5.000000,3.000000,373308.250000,47.000000,1.000000
440419.63000061,4464058.24000732,4.26999998,0,183,71,5.000000,23.000000,373308.281250,54.000000,1.000000
440421.68999817,4464052.22000305,4.34999990,0,186,68,5.000000,21.000000,373308.375000,43.000000,1.000000
440421.66999390,4464052.45999329,4.30000019,0,183,71,5.000000,5.000000,373308.375000,44.000000,1.000000
440423.60999634,4464053.05000488,3.95000005,0,169,85,5.000000,3.000000,373308.375000,45.000000,1.000000
440421.61999084,4464053.03000061,4.42999983,0,189,65,5.000000,21.000000,373308.375000,43.000000,1.000000
440419.63000061,4464052.86999695,4.34000015,0,186,68,5.000000,23.000000,373308.375000,45.000000,1.000000
440423.54999878,4464053.58999817,3.98000002,0,170,84,5.000000,19.000000,373308.375000,45.000000,1.000000
440419.11999084,4464055.83999817,2.34999990,0,100,154,5.000000,23.000000,373308.375000,63.000000,1.000000
440419.10999634,4464056.06999390,2.65000010,0,113,141,5.000000,7.000000,373308.375000,62.000000,1.000000
440422.86999084,4464060.47999756,3.94000006,0,169,85,5.000000,3.000000,373308.375000,59.000000,1.000000
440423.18999817,4464052.94000427,4.07000017,0,174,80,5.000000,3.000000,373308.468750,44.000000,1.000000
440419.10000183,4464053.39000122,3.98000002,0,170,84,5.000000,7.000000,373308.468750,48.000000,1.000000
440422.63999512,4464051.84999268,3.15000010,0,134,120,5.000000,19.000000,373308.562500,48.000000,1.000000
440422.60999634,4464052.05999939,3.54999995,0,151,103,5.000000,3.000000,373308.562500,47.000000,1.000000
440422.58999207,4464052.22000305,3.75000000,0,160,94,5.000000,19.000000,373308.562500,46.000000,1.000000
440422.56998779,4464052.44000427,4.03999996,0,172,82,5.000000,3.000000,373308.562500,44.000000,1.000000
440422.55999329,4464052.59999268,4.01999998,0,171,83,5.000000,19.000000,373308.562500,45.000000,1.000000
440420.57999756,4464052.42000000,4.36999989,0,186,68,5.000000,21.000000,373308.562500,43.000000,1.000000
440422.52999451,4464052.83999817,3.79999995,0,163,91,5.000000,3.000000,373308.562500,46.000000,1.000000
440423.81998779,4464060.11000244,4.38000011,0,187,67,5.000000,17.000000,373308.562500,100.000000,1.000000
440421.68999817,4464060.81999390,4.01000023,0,171,83,5.000000,19.000000,373308.562500,59.000000,1.000000
440421.67998840,4464061.08000366,3.92000008,0,168,86,5.000000,3.000000,373308.562500,59.000000,1.000000
440421.82999756,4464052.30000488,4.09999990,0,175,79,5.000000,3.000000,373308.656250,118.000000,1.000000
440423.78998901,4464052.89000122,3.44000006,0,147,107,5.000000,1.000000,373308.656250,48.000000,1.000000
440421.78998901,4464052.67999451,4.26000023,0,182,72,5.000000,3.000000,373308.656250,118.000000,1.000000
440421.75999023,4464052.88000671,3.01999998,0,129,125,5.000000,19.000000,373308.656250,52.000000,1.000000
440419.78998901,4464052.66000549,4.17000008,0,178,76,5.000000,21.000000,373308.656250,45.000000,1.000000
440419.45998718,4464055.33999817,3.84999990,0,165,89,5.000000,5.000000,373308.656250,52.000000,1.000000
440419.42998840,4464055.52000610,3.67000008,0,157,97,5.000000,21.000000,373308.656250,53.000000,1.000000
440419.32999756,4464056.03000061,2.78999996,0,119,135,5.000000,21.000000,373308.656250,125.000000,1.000000
440423.43999817,4464052.55999939,3.17000008,0,135,119,5.000000,17.000000,373308.750000,50.000000,1.000000
440419.28998901,4464053.58999817,4.05999994,0,174,80,5.000000,5.000000,373308.750000,47.000000,1.000000
440421.10000183,4464055.45999329,3.20000005,0,136,118,5.000000,3.000000,373308.781250,55.000000,1.000000
440418.95998718,4464055.75999634,2.40000010,0,102,152,5.000000,5.000000,373308.781250,62.000000,1.000000
440423.41999390,4464052.44999878,3.16000009,0,135,119,5.000000,17.000000,373308.875000,51.000000,1.000000
440421.07999756,4464055.33999817,3.21000004,0,137,117,5.000000,3.000000,373308.875000,55.000000,1.000000
440421.05999329,4464055.55000488,2.78999996,0,119,135,5.000000,19.000000,373308.875000,58.000000,1.000000
440419.00999023,4464055.36000244,2.81999993,0,120,134,5.000000,21.000000,373308.875000,58.000000,1.000000
440418.97999146,4464053.47999756,4.01000023,0,171,83,5.000000,21.000000,373308.968750,47.000000,1.000000
440420.94999268,4464053.91000549,3.74000001,0,160,94,5.000000,3.000000,373308.968750,48.000000,1.000000
440422.27999451,4464060.89000122,4.17000008,0,178,76,5.000000,17.000000,373308.968750,59.000000,1.000000
440422.69999268,4464052.09999268,3.76999998,0,161,93,5.000000,17.000000,373309.062500,46.000000,1.000000
440422.66999390,4464052.31999390,4.09999990,0,175,79,5.000000,1.000000,373309.062500,89.000000,1.000000
440422.64998962,4464052.47999756,4.09999990,0,175,79,5.000000,17.000000,373309.062500,89.000000,1.000000
440420.11999084,4464057.47000305,3.75999999,0,160,94,5.000000,3.000000,373309.062500,56.000000,1.000000
440423.94999268,4464060.17000000,4.38000011,0,187,67,5.000000,30.000000,373309.062500,56.000000,1.000000
440421.85000183,4464060.72999756,3.99000001,0,171,83,5.000000,17.000000,373309.062500,59.000000,1.000000
440422.05999329,4464052.11000244,4.15999985,0,177,77,5.000000,1.000000,373309.156250,44.000000,1.000000
440422.03998901,4464052.27000610,4.28999996,0,183,71,5.000000,17.000000,373309.156250,87.000000,1.000000
440422.02999451,4464052.50999634,3.80999994,0,163,91,5.000000,1.000000,373309.156250,46.000000,1.000000
440421.99000122,4464052.89999573,3.96000004,0,169,85,5.000000,1.000000,373309.156250,45.000000,1.000000
440423.91999390,4464053.64000122,3.92000008,0,168,86,5.000000,14.000000,373309.156250,46.000000,1.000000
440419.74000122,4464055.14999573,4.13999987,0,177,77,5.000000,3.000000,373309.156250,50.000000,1.000000
440419.71999695,4464055.30000488,4.25000000,0,181,73,5.000000,19.000000,373309.156250,49.000000,1.000000
440423.60000183,4464052.66000549,3.41000009,0,145,109,5.000000,14.000000,373309.281250,50.000000,1.000000
440423.58999207,4464052.81999390,3.40000010,0,145,109,5.000000,30.000000,373309.281250,50.000000,1.000000
440419.50999023,4464052.91000549,4.23000002,0,180,74,5.000000,3.000000,373309.281250,45.000000,1.000000
440423.41999390,4464053.58000366,4.38999987,0,188,66,5.000000,30.000000,373309.281250,43.000000,1.000000
440419.30999329,4464054.94000427,3.82999992,0,163,91,5.000000,3.000000,373309.281250,51.000000,1.000000
440421.31998779,4464055.61999695,2.89000010,0,123,131,5.000000,1.000000,373309.281250,57.000000,1.000000
440419.24000122,4464055.53000061,3.70000005,0,158,96,5.000000,19.000000,373309.281250,53.000000,1.000000
440419.19999268,4464056.03999512,2.77999997,0,118,136,5.000000,19.000000,373309.281250,60.000000,1.000000
440422.97999146,4464052.00999634,3.61999989,0,154,100,5.000000,14.000000,373309.375000,48.000000,1.000000
440422.94999268,4464052.16000549,3.90000010,0,166,88,5.000000,30.000000,373309.375000,46.000000,1.000000
440420.96999695,4464052.08999817,3.28999996,0,140,114,5.000000,1.000000,373309.375000,100.000000,1.000000
440420.93999817,4464052.24000732,3.61999989,0,154,100,5.000000,17.000000,373309.375000,48.000000,1.000000
440418.77999451,4464053.47000305,4.13999987,0,177,77,5.000000,3.000000,373309.375000,47.000000,1.000000
440420.79999878,4464053.86999695,2.94000006,0,125,129,5.000000,17.000000,373309.375000,53.000000,1.000000
440420.40999939,4464057.49000732,4.26999998,0,183,71,5.000000,17.000000,373309.375000,53.000000,1.000000
440420.38000061,4464057.70999329,4.46000004,0,191,63,5.000000,1.000000,373309.375000,51.000000,1.000000
440424.27999451,4464060.06999390,4.40000010,0,188,66,5.000000,28.000000,373309.375000,56.000000,1.000000
440422.18999817,4464060.61000244,4.19999981,0,180,74,5.000000,14.000000,373309.375000,58.000000,1.000000
440422.17998840,4464060.78999512,4.13999987,0,177,77,5.000000,30.000000,373309.375000,59.000000,1.000000
440422.33999207,4464052.16000549,3.68000007,0,157,97,5.000000,14.000000,373309.468750,48.000000,1.000000
440422.31998779,4464052.31999390,3.81999993,0,163,91,5.000000,30.000000,373309.468750,47.000000,1.000000
440422.27000000,4464052.72000305,3.90000010,0,166,88,5.000000,30.000000,373309.468750,46.000000,1.000000
440424.18999817,4464053.52000610,4.05000019,0,173,81,5.000000,12.000000,373309.468750,46.000000,1.000000
440419.74999573,4464058.06999390,4.17000008,0,178,76,5.000000,17.000000,373309.468750,54.000000,1.000000
440419.70998718,4464058.52000610,3.88000011,0,166,88,5.000000,17.000000,373309.468750,56.000000,1.000000
440423.60999634,4464053.00000183,4.03000021,0,172,82,5.000000,28.000000,373309.562500,46.000000,1.000000
440419.60999634,4464052.74000732,4.32999992,0,185,69,5.000000,1.000000,373309.562500,89.000000,1.000000
440419.41999390,4464054.94999878,3.82999992,0,163,91,5.000000,17.000000,373309.562500,51.000000,1.000000
440419.39998962,4464055.20999329,3.61999989,0,154,100,5.000000,1.000000,373309.562500,53.000000,1.000000
440419.35000183,4464055.61000244,3.71000004,0,158,96,5.000000,1.000000,373309.562500,53.000000,1.000000
440419.38000061,4464055.89000122,2.40000010,0,102,152,5.000000,17.000000,373309.562500,61.000000,1.000000
440420.96999695,4464052.14999573,3.47000003,0,148,106,5.000000,30.000000,373309.656250,49.000000,1.000000
440420.89998962,4464052.53999512,4.07000017,0,174,80,5.000000,30.000000,373309.656250,46.000000,1.000000
440420.43999817,4464057.63000671,4.42000008,0,189,65,5.000000,14.000000,373309.656250,52.000000,1.000000
440420.42998840,4464057.78999512,4.40000010,0,188,66,5.000000,30.000000,373309.656250,52.000000,1.000000
440422.31998779,4464060.38000671,4.09000015,0,174,80,5.000000,12.000000,373309.656250,60.000000,1.000000
440422.28998901,4464060.50999634,4.28999996,0,183,71,5.000000,28.000000,373309.656250,58.000000,1.000000
440422.25999023,4464060.94999878,4.15999985,0,177,77,5.000000,28.000000,373309.656250,60.000000,1.000000
440422.54999878,4464052.05000488,3.61999989,0,154,100,5.000000,28.000000,373309.781250,49.000000,1.000000
440422.52999451,4464052.28999512,3.60999990,0,154,100,5.000000,12.000000,373309.781250,49.000000,1.000000
440422.47999146,4464052.44000427,3.98000002,0,170,84,5.000000,28.000000,373309.781250,47.000000,1.000000
440422.44999268,4464052.66000549,4.01000023,0,171,83,5.000000,12.000000,373309.781250,46.000000,1.000000
440421.86999084,4464060.67000000,4.01000023,0,171,83,5.000000,28.000000,373309.781250,60.000000,1.000000
440422.28998901,4464052.17000000,3.78999996,0,162,92,5.000000,28.000000,373309.875000,48.000000,1.000000
440422.24000122,4464052.55999939,3.98000002,0,170,84,5.000000,28.000000,373309.875000,47.000000,1.000000
440424.27000000,4464052.99000732,3.67000008,0,157,97,5.000000,10.000000,373309.875000,50.000000,1.000000
440424.25999023,4464053.14999573,3.56999993,0,152,102,5.000000,26.000000,373309.875000,51.000000,1.000000
440424.15999939,4464053.34999268,4.13000011,0,177,77,5.000000,10.000000,373309.875000,47.000000,1.000000
440424.15999939,4464053.50999634,4.03000021,0,172,82,5.000000,26.000000,373309.875000,48.000000,1.000000
440419.74000122,4464058.28000061,4.44999981,0,190,64,5.000000,14.000000,373309.875000,53.000000,1.000000
440419.74999573,4464058.50000183,3.97000003,0,169,85,5.000000,30.000000,373309.875000,56.000000,1.000000
440421.97999146,4464052.16000549,2.97000003,0,127,127,5.000000,12.000000,373309.968750,53.000000,1.000000
440421.83999207,4464052.28000061,4.11999989,0,176,78,5.000000,28.000000,373309.968750,46.000000,1.000000
440421.82999756,4464052.52000610,4.09999990,0,175,79,5.000000,12.000000,373309.968750,46.000000,1.000000
440421.79999878,4464052.67999451,4.26000023,0,182,72,5.000000,28.000000,373309.968750,45.000000,1.000000
440419.79999878,4464052.75000183,4.09999990,0,175,79,5.000000,14.000000,373309.968750,46.000000,1.000000
440419.60000183,4464055.31999390,4.26000023,0,182,72,5.000000,30.000000,373309.968750,50.000000,1.000000
440419.57999756,4464055.75000183,4.00000000,0,171,83,5.000000,30.000000,373309.968750,52.000000,1.000000
440419.63999512,4464056.27000610,2.94000006,0,125,129,5.000000,30.000000,373309.968750,60.000000,1.000000
440423.46999695,4464052.86999695,3.33999991,0,142,112,5.000000,10.000000,373310.062500,53.000000,1.000000
440419.28998901,4464053.30999939,4.03000021,0,172,82,5.000000,14.000000,373310.062500,48.000000,1.000000
440421.28998901,4464054.47999756,3.40000010,0,145,109,5.000000,28.000000,373310.062500,53.000000,1.000000
440419.22999146,4464055.44999878,2.75999999,0,118,136,5.000000,14.000000,373310.062500,59.000000,1.000000
440419.21999695,4464055.89999573,2.38000011,0,101,153,5.000000,14.000000,373310.062500,62.000000,1.000000
440420.95998718,4464060.00000183,3.14000010,0,134,120,5.000000,28.000000,373310.062500,63.000000,1.000000
440421.08999207,4464052.20999329,3.21000004,0,137,117,5.000000,28.000000,373310.156250,52.000000,1.000000
440420.99000122,4464052.41000549,3.97000003,0,169,85,5.000000,12.000000,373310.156250,48.000000,1.000000
440420.99000122,4464052.58000366,3.85999990,0,165,89,5.000000,28.000000,373310.156250,48.000000,1.000000
440418.88999512,4464053.44000427,4.01000023,0,171,83,5.000000,14.000000,373310.156250,48.000000,1.000000
440422.57999756,4464060.44999878,3.88000011,0,166,88,5.000000,10.000000,373310.156250,63.000000,1.000000
440422.38000061,4464052.03000061,3.71000004,0,158,96,5.000000,26.000000,373310.281250,50.000000,1.000000
440422.32999756,4464052.25999634,3.86999989,0,166,88,5.000000,10.000000,373310.281250,49.000000,1.000000
440422.29999878,4464052.42000000,4.03999996,0,172,82,5.000000,26.000000,373310.281250,48.000000,1.000000
440424.24000122,4464053.38000671,4.09999990,0,175,79,5.000000,24.000000,373310.281250,49.000000,1.000000
440419.13000061,4464053.39999573,4.00000000,0,171,83,5.000000,12.000000,373310.375000,49.000000,1.000000
440419.14998962,4464055.30000488,2.77999997,0,118,136,5.000000,28.000000,373310.375000,60.000000,1.000000
440419.13000061,4464055.55000488,2.75000000,0,117,137,5.000000,12.000000,373310.375000,60.000000,1.000000
440419.13999512,4464055.74000732,2.48000002,0,106,148,5.000000,28.000000,373310.375000,62.000000,1.000000
440422.38000061,4464052.03999512,3.77999997,0,162,92,5.000000,24.000000,373310.468750,51.000000,1.000000
440422.35000183,4464052.25999634,3.86999989,0,166,88,5.000000,8.000000,373310.468750,50.000000,1.000000
440422.28998901,4464052.41000549,4.15999985,0,177,77,5.000000,24.000000,373310.468750,48.000000,1.000000
440422.30999329,4464052.66000549,3.95000005,0,169,85,5.000000,8.000000,373310.468750,50.000000,1.000000
440423.92998840,4464060.19999878,4.44000006,0,189,65,5.000000,6.000000,373310.468750,61.000000,1.000000
440424.15999939,4464052.22000305,3.14000010,0,134,120,5.000000,6.000000,373310.562500,57.000000,1.000000
440421.88000061,4464052.19000427,4.21000004,0,180,74,5.000000,24.000000,373310.562500,48.000000,1.000000
440421.88999512,4464052.44000427,4.07999992,0,174,80,5.000000,8.000000,373310.562500,49.000000,1.000000
440424.16999390,4464052.80000488,2.86999989,0,122,132,5.000000,22.000000,373310.562500,59.000000,1.000000
440423.89998962,4464053.00000183,4.03000021,0,172,82,5.000000,6.000000,373310.562500,51.000000,1.000000
440421.89998962,4464052.84999268,3.80999994,0,163,91,5.000000,8.000000,373310.562500,51.000000,1.000000
440419.47999146,4464058.39000122,4.21000004,0,180,74,5.000000,10.000000,373310.562500,56.000000,1.000000
440423.79999878,4464052.80000488,3.44000006,0,147,107,5.000000,6.000000,373310.656250,56.000000,1.000000
440419.54999878,4464052.83000366,4.32000017,0,185,69,5.000000,10.000000,373310.656250,47.000000,1.000000
440419.49999573,4464054.89000122,3.82999992,0,163,91,5.000000,10.000000,373310.656250,53.000000,1.000000
