//X,Y,Z,R,G,B,Point Source ID,User Data,Time,Intensity,Classification
440408.10999634,4464079.61000244,6.25000000,12,255,0,4.000000,21.000000,373222.718750,52.000000,1.000000
440410.48999359,4464069.97000305,5.38999987,0,231,23,4.000000,23.000000,373222.812500,63.000000,1.000000
440409.47999146,4464080.78000061,5.80999994,0,249,5,4.000000,3.000000,373223.312500,53.000000,1.000000
440407.70999481,4464079.99000732,5.15000010,0,220,34,4.000000,30.000000,373223.812500,55.000000,1.000000
440407.66999390,4464079.17999451,5.98000002,1,255,0,4.000000,14.000000,373223.812500,52.000000,1.000000
440408.53999664,4464076.67000000,6.25000000,12,255,0,4.000000,14.000000,373224.031250,61.000000,1.000000
440410.79999115,4464069.30999939,5.57999992,0,239,15,4.000000,14.000000,373224.531250,63.000000,1.000000
440407.11999084,4464076.06999390,6.30000019,14,255,0,4.000000,24.000000,373224.906250,63.000000,1.000000
440408.64999725,4464080.19000427,5.92000008,0,253,1,4.000000,20.000000,373226.125000,63.000000,1.000000
440412.99000122,4464081.38000671,6.55999994,26,255,0,4.000000,20.000000,373227.031250,63.000000,1.000000
440411.29999115,4464070.91000549,6.50000000,23,255,0,5.000000,27.000000,373308.656250,63.000000,1.000000
440412.11999084,4464070.25000183,6.44000006,20,255,0,5.000000,23.000000,373309.468750,60.000000,1.000000
440411.52999451,4464070.17999451,6.51000023,23,255,0,5.000000,7.000000,373309.562500,59.000000,1.000000
440411.48999359,4464069.77000610,5.76999998,0,247,7,5.000000,5.000000,373310.062500,56.000000,1.000000
440412.49000122,4464069.39999573,6.48000002,23,255,0,5.000000,3.000000,373310.281250,55.000000,1.000000
440411.04999115,4464071.16000549,6.38000011,18,255,0,5.000000,17.000000,373310.875000,59.000000,1.000000
440410.65999176,4464069.30000488,5.73000002,0,245,9,5.000000,28.000000,373311.781250,53.000000,1.000000
440407.95999481,4464075.67999451,6.40999985,19,255,0,5.000000,22.000000,373313.281250,63.000000,1.000000
440412.04999878,4464069.39000122,6.65000010,29,255,0,5.000000,0.000000,373313.781250,100.000000,1.000000
440408.56999542,4464079.31999390,6.48000002,23,255,0,5.000000,0.000000,373314.468750,63.000000,1.000000
440411.12999298,4464080.11999695,6.48999977,23,255,0,3.000000,29.000000,373181.781250,56.000000,1.000000
440407.64999725,4464076.05000488,5.69000006,0,243,11,3.000000,27.000000,373182.968750,63.000000,1.000000
440412.31998779,4464080.28999512,6.40999985,19,255,0,3.000000,1.000000,373185.281250,63.000000,1.000000
440406.79999115,4464074.72999756,4.88000011,0,209,45,4.000000,31.000000,373220.406250,63.000000,1.000000
440407.11999084,4464073.94000427,6.34999990,17,255,0,4.000000,15.000000,373220.531250,63.000000,1.000000
440407.89999725,4464076.03000061,6.11999989,7,255,0,4.000000,15.000000,373220.718750,63.000000,1.000000
440407.52999451,4464079.30999939,4.63000011,0,198,56,4.000000,29.000000,373221.000000,119.000000,1.000000
440408.05999329,4464076.99000732,6.00000000,2,255,0,4.000000,29.000000,373221.125000,119.000000,1.000000
440408.34999420,4464079.47000305,5.90999985,0,253,1,4.000000,13.000000,373221.218750,60.000000,1.000000
440408.28999664,4464079.45999329,6.32999992,16,255,0,4.000000,29.000000,373221.218750,57.000000,1.000000
440410.98999359,4464069.78999512,5.82000017,0,249,5,4.000000,31.000000,373221.218750,63.000000,1.000000
440408.80999329,4464079.77000610,6.51000023,23,255,0,4.000000,13.000000,373221.312500,112.000000,1.000000
440406.75999786,4464075.49000732,5.61999989,0,240,14,4.000000,11.000000,373221.312500,63.000000,1.000000
440408.98999359,4464074.92000000,6.11000013,6,255,0,4.000000,29.000000,373221.312500,62.000000,1.000000
440409.33999207,4464080.17000000,5.92999983,0,254,0,4.000000,13.000000,373221.406250,114.000000,1.000000
440407.29999115,4464076.64999573,5.11000013,0,219,35,4.000000,11.000000,373221.406250,63.000000,1.000000
440407.28999664,4464076.53000061,5.23999977,0,224,30,4.000000,27.000000,373221.406250,63.000000,1.000000
440407.75999786,4464079.83000366,5.07999992,0,217,37,4.000000,27.000000,373221.500000,57.000000,1.000000
440407.78999664,4464073.11999695,5.73999977,0,246,8,4.000000,27.000000,373221.531250,63.000000,1.000000
440407.79999115,4464072.81999390,5.32000017,0,228,26,4.000000,11.000000,373221.531250,63.000000,1.000000
440410.18999817,4464069.27000610,5.26000023,0,225,29,4.000000,29.000000,373221.531250,59.000000,1.000000
440408.24999573,4464080.47999756,5.57000017,0,238,16,4.000000,11.000000,373221.625000,56.000000,1.000000
440408.14999725,4464079.05999939,6.55999994,26,255,0,4.000000,11.000000,373221.625000,100.000000,1.000000
440410.57999756,4464069.74000732,5.50000000,0,235,19,4.000000,13.000000,373221.625000,120.000000,1.000000
440408.59999420,4464078.92000000,6.25000000,12,255,0,4.000000,27.000000,373221.718750,56.000000,1.000000
440408.62999298,4464076.74000732,5.96000004,0,255,0,4.000000,11.000000,373221.718750,63.000000,1.000000
440409.23999359,4464080.11000244,5.96999979,0,255,0,4.000000,27.000000,373221.812500,56.000000,1.000000
440407.86999084,4464077.61000244,5.30999994,0,227,27,4.000000,25.000000,373221.906250,62.000000,1.000000
440407.72999146,4464076.06999390,6.38999987,18,255,0,4.000000,9.000000,373221.906250,59.000000,1.000000
440410.72999146,4464069.70999329,5.40999985,0,231,23,4.000000,11.000000,373222.031250,63.000000,1.000000
440409.00999786,4464075.97999756,5.61999989,0,240,14,4.000000,25.000000,373222.125000,63.000000,1.000000
440408.94999268,4464075.75999634,6.11999989,7,255,0,4.000000,25.000000,373222.125000,63.000000,1.000000
440408.94999268,4464075.58999817,6.32999992,16,255,0,4.000000,9.000000,373222.125000,63.000000,1.000000
440409.11999084,4464078.00999634,6.53000021,24,255,0,4.000000,9.000000,373222.218750,57.000000,1.000000
440406.97999146,4464075.63000671,5.44999981,0,233,21,4.000000,23.000000,373222.218750,63.000000,1.000000
440409.08999207,4464075.13000671,5.92999983,0,254,0,4.000000,9.000000,373222.218750,63.000000,1.000000
440411.30999329,4464070.20999329,6.26000023,13,255,0,4.000000,27.000000,373222.218750,63.000000,1.000000
440407.51999237,4464079.31999390,4.69999981,0,201,53,4.000000,7.000000,373222.312500,58.000000,1.000000
440407.50999786,4464079.13000671,4.65999985,0,199,55,4.000000,23.000000,373222.312500,58.000000,1.000000
440407.48999359,4464078.89000122,4.94999981,0,212,42,4.000000,7.000000,373222.312500,58.000000,1.000000
440409.49999573,4464078.44000427,6.51999998,24,255,0,4.000000,25.000000,373222.312500,56.000000,1.000000
440409.46999695,4464077.00999634,6.40000010,19,255,0,4.000000,25.000000,373222.312500,61.000000,1.000000
440408.13999512,4464079.72999756,6.23999977,12,255,0,4.000000,7.000000,373222.406250,53.000000,1.000000
440408.06999542,4464077.66000549,5.51000023,0,236,18,4.000000,23.000000,373222.406250,60.000000,1.000000
440408.01999237,4464077.05000488,5.71999979,0,245,9,4.000000,7.000000,373222.406250,60.000000,1.000000
440407.91999390,4464072.80000488,5.26999998,0,225,29,4.000000,7.000000,373222.406250,63.000000,1.000000
440410.06999542,4464069.05999939,5.42999983,0,232,22,4.000000,9.000000,373222.406250,63.000000,1.000000
440410.08999207,4464068.77000610,4.96999979,0,213,41,4.000000,25.000000,373222.406250,63.000000,1.000000
440406.74999573,4464075.92999451,5.26000023,0,225,29,4.000000,5.000000,373222.531250,63.000000,1.000000
440406.72999146,4464074.72999756,4.57000017,0,195,59,4.000000,5.000000,373222.531250,63.000000,1.000000
440407.33999207,4464075.89999573,6.11000013,6,255,0,4.000000,5.000000,373222.625000,59.000000,1.000000
440408.08999207,4464079.42999451,6.44000006,20,255,0,4.000000,5.000000,373222.718750,52.000000,1.000000
440408.74999573,4464080.03999512,5.73000002,0,245,9,4.000000,21.000000,373222.812500,118.000000,1.000000
440408.71999695,4464079.89999573,6.30999994,15,255,0,4.000000,5.000000,373222.812500,51.000000,1.000000
440408.70999481,4464079.83999817,6.59000015,27,255,0,4.000000,21.000000,373222.812500,50.000000,1.000000
440408.57999756,4464076.72000305,6.05999994,4,255,0,4.000000,5.000000,373222.812500,60.000000,1.000000
440407.08999207,4464076.20999329,5.26000023,0,225,29,4.000000,19.000000,373222.906250,63.000000,1.000000
440406.97999146,4464074.27000610,5.48999977,0,235,19,4.000000,3.000000,373222.906250,63.000000,1.000000
440411.15999176,4464069.92999451,5.51000023,0,236,18,4.000000,23.000000,373222.906250,63.000000,1.000000
440407.87999298,4464080.14000122,5.73999977,0,246,8,4.000000,3.000000,373223.031250,53.000000,1.000000
440407.84999420,4464079.45999329,6.50000000,23,255,0,4.000000,3.000000,373223.031250,51.000000,1.000000
440407.55999329,4464074.75000183,6.32999992,16,255,0,4.000000,3.000000,373223.031250,61.000000,1.000000
440407.52999451,4464074.36999695,6.48999977,23,255,0,4.000000,3.000000,373223.031250,61.000000,1.000000
440408.40999176,4464079.92000000,6.28999996,14,255,0,4.000000,3.000000,373223.125000,52.000000,1.000000
440408.24999573,4464077.55000488,5.50000000,0,235,19,4.000000,3.000000,373223.125000,60.000000,1.000000
440406.42999603,4464075.39000122,4.78000021,0,204,50,4.000000,1.000000,373223.218750,100.000000,1.000000
440407.11999084,4464076.63000671,4.94999981,0,212,42,4.000000,17.000000,373223.312500,63.000000,1.000000
440411.03999664,4464069.70999329,5.80999994,0,249,5,4.000000,21.000000,373223.312500,63.000000,1.000000
440408.11999084,4464080.09999268,6.03999996,3,255,0,4.000000,17.000000,373223.406250,52.000000,1.000000
440408.05999329,4464079.33999817,6.55999994,26,255,0,4.000000,17.000000,373223.406250,100.000000,1.000000
440409.55999329,4464069.78000061,5.03000021,0,215,39,4.000000,19.000000,373223.406250,63.000000,1.000000
440410.77999451,4464080.47999756,6.67999983,31,255,0,4.000000,19.000000,373223.531250,50.000000,1.000000
440410.75999786,4464080.08000366,6.36000013,17,255,0,4.000000,3.000000,373223.531250,53.000000,1.000000
440408.68999817,4464079.59999268,6.63000011,29,255,0,4.000000,1.000000,373223.531250,100.000000,1.000000
440408.57999756,4464078.22000305,6.34000015,16,255,0,4.000000,1.000000,373223.531250,55.000000,1.000000
440410.09999420,4464068.84999268,4.92999983,0,211,43,4.000000,19.000000,373223.531250,63.000000,1.000000
440406.56999542,4464075.42000000,4.69999981,0,201,53,4.000000,30.000000,373223.625000,63.000000,1.000000
440409.37999298,4464080.66000549,5.88999987,0,252,2,4.000000,17.000000,373223.718750,100.000000,1.000000
440409.26999237,4464079.11000244,6.48999977,23,255,0,4.000000,17.000000,373223.718750,54.000000,1.000000
440415.24999573,4464072.83999817,6.61999989,29,255,0,4.000000,7.000000,373223.718750,63.000000,1.000000
440407.37999298,4464076.72999756,5.19000006,0,222,32,4.000000,30.000000,373223.812500,63.000000,1.000000
440407.33999207,4464075.77000610,5.98999977,1,255,0,4.000000,30.000000,373223.812500,62.000000,1.000000
440407.16999390,4464074.53999512,4.96000004,0,212,42,4.000000,14.000000,373223.812500,63.000000,1.000000
440410.25999786,4464080.31999390,6.30000019,14,255,0,4.000000,1.000000,373223.906250,100.000000,1.000000
440408.14999725,4464079.28000061,6.53999996,25,255,0,4.000000,14.000000,373223.906250,53.000000,1.000000
440413.00999023,4464081.28000061,6.59000015,27,255,0,4.000000,19.000000,373224.031250,54.000000,1.000000
440408.51999237,4464076.47000305,6.23000002,11,255,0,4.000000,30.000000,373224.031250,62.000000,1.000000
440413.79999878,4464080.69999878,6.67000008,30,255,0,4.000000,3.000000,373224.125000,56.000000,1.000000
440407.19999268,4464075.80000488,6.07999992,5,255,0,4.000000,12.000000,373224.125000,63.000000,1.000000
440410.94999268,4464070.05999939,6.44000006,20,255,0,4.000000,17.000000,373224.125000,63.000000,1.000000
440414.44999268,4464080.61999695,6.65000010,29,255,0,4.000000,19.000000,373224.218750,124.000000,1.000000
440408.28999664,4464080.66000549,5.48000002,0,234,20,4.000000,28.000000,373224.218750,56.000000,1.000000
440408.23999359,4464079.45999329,6.61000013,28,255,0,4.000000,12.000000,373224.218750,54.000000,1.000000
440409.28999664,4464079.27000610,6.59999990,27,255,0,4.000000,28.000000,373224.406250,55.000000,1.000000
440409.12999298,4464077.83999817,6.51999998,24,255,0,4.000000,28.000000,373224.406250,60.000000,1.000000
440410.45999481,4464069.83999817,5.55000019,0,237,17,4.000000,30.000000,373224.406250,63.000000,1.000000
440413.88999512,4464080.38000671,6.65999985,30,255,0,4.000000,17.000000,373224.531250,57.000000,1.000000
440407.62999298,4464074.42999451,6.61999989,29,255,0,4.000000,10.000000,373224.625000,63.000000,1.000000
440408.62999298,4464078.03000061,6.28999996,14,255,0,4.000000,10.000000,373224.718750,61.000000,1.000000
440408.62999298,4464077.92000000,6.15000010,8,255,0,4.000000,26.000000,373224.718750,60.000000,1.000000
440408.29999115,4464075.53000061,6.30999994,15,255,0,4.000000,26.000000,373224.718750,63.000000,1.000000
440410.01999237,4464069.25999634,5.57999992,0,239,15,4.000000,12.000000,373224.812500,63.000000,1.000000
440409.53999664,4464078.92999451,6.30999994,15,255,0,4.000000,10.000000,373224.906250,60.000000,1.000000
440407.51999237,4464075.94999878,5.09000015,0,218,36,4.000000,8.000000,373225.031250,63.000000,1.000000
440407.40999176,4464073.80999939,6.26000023,13,255,0,4.000000,8.000000,373225.031250,63.000000,1.000000
440410.76999237,4464080.13000671,6.28000021,14,255,0,4.000000,10.000000,373225.125000,59.000000,1.000000
440411.61999084,4464069.66000549,5.69999981,0,244,10,4.000000,28.000000,373225.125000,63.000000,1.000000
440408.59999420,4464076.53000061,6.19000006,10,255,0,4.000000,8.000000,373225.218750,63.000000,1.000000
440408.34999420,4464075.55999939,5.53000021,0,237,17,4.000000,24.000000,373225.218750,63.000000,1.000000
440413.64998962,4464080.83999817,6.48000002,23,255,0,4.000000,12.000000,373225.312500,59.000000,1.000000
440413.61999084,4464080.25999634,6.57000017,26,255,0,4.000000,28.000000,373225.312500,59.000000,1.000000
440409.51999237,4464080.19000427,6.51000023,23,255,0,4.000000,24.000000,373225.312500,58.000000,1.000000
440406.63999512,4464076.08999817,4.98000002,0,213,41,4.000000,22.000000,373225.312500,63.000000,1.000000
440410.06999542,4464069.41000549,5.44999981,0,233,21,4.000000,10.000000,373225.312500,63.000000,1.000000
440408.09999420,4464080.58000366,5.23999977,0,224,30,4.000000,22.000000,373225.406250,63.000000,1.000000
440408.08999207,4464079.28000061,6.61999989,29,255,0,4.000000,22.000000,373225.406250,61.000000,1.000000
440410.92999603,4464070.19000427,6.23000002,11,255,0,4.000000,26.000000,373225.406250,63.000000,1.000000
440412.97999146,4464080.64999573,6.46000004,21,255,0,4.000000,26.000000,373225.531250,61.000000,1.000000
440408.74999573,4464080.03999512,5.86999989,0,251,3,4.000000,22.000000,373225.531250,63.000000,1.000000
440410.60999634,4464078.72000305,6.05000019,4,255,0,4.000000,24.000000,373225.531250,63.000000,1.000000
440408.28999664,4464077.14999573,5.86000013,0,251,3,4.000000,6.000000,373225.531250,63.000000,1.000000
440409.29999115,4464080.64999573,5.94999981,0,255,0,4.000000,6.000000,373225.625000,62.000000,1.000000
440409.30999329,4464080.53000061,6.07999992,5,255,0,4.000000,22.000000,373225.625000,62.000000,1.000000
440409.24999573,4464080.11000244,6.11999989,7,255,0,4.000000,22.000000,373225.625000,63.000000,1.000000
440413.74999573,4464081.17000000,6.51999998,24,255,0,4.000000,26.000000,373225.718750,60.000000,1.000000
440409.51999237,4464080.86999695,5.78999996,0,248,6,4.000000,22.000000,373225.718750,63.000000,1.000000
440412.02000000,4464078.50999634,6.44000006,20,255,0,4.000000,8.000000,373226.031250,63.000000,1.000000
440407.33999207,4464075.94999878,5.98000002,1,255,0,4.000000,20.000000,373226.031250,62.000000,1.000000
440412.97999146,4464081.00999634,6.57000017,26,255,0,4.000000,8.000000,373226.125000,100.000000,1.000000
440412.93999817,4464080.80000488,6.48999977,23,255,0,4.000000,24.000000,373226.125000,63.000000,1.000000
440408.58999207,4464080.25000183,5.63000011,0,241,13,4.000000,4.000000,373226.125000,127.000000,1.000000
440411.17999603,4464069.92000000,5.51999998,0,236,18,4.000000,24.000000,373226.125000,63.000000,1.000000
440410.43999817,4464080.49000732,6.48000002,23,255,0,4.000000,20.000000,373226.406250,63.000000,1.000000
440408.16999390,4464078.06999390,5.53000021,0,237,17,4.000000,18.000000,373226.531250,100.000000,1.000000
440407.91999390,4464076.05000488,6.21000004,11,255,0,4.000000,18.000000,373226.531250,100.000000,1.000000
440413.60000183,4464080.69000427,6.59999990,27,255,0,4.000000,6.000000,373226.625000,63.000000,1.000000
440408.90999176,4464078.34999268,6.53000021,24,255,0,4.000000,2.000000,373226.625000,100.000000,1.000000
440410.06999542,4464080.91000549,6.30999994,15,255,0,4.000000,2.000000,373226.812500,100.000000,1.000000
440407.35999634,4464076.25000183,6.40000010,19,255,0,4.000000,16.000000,373226.906250,63.000000,1.000000
440410.27999451,4464069.83000366,5.13999987,0,220,34,4.000000,4.000000,373226.906250,59.000000,1.000000
440410.25999786,4464069.33999817,5.55999994,0,238,16,4.000000,20.000000,373226.906250,59.000000,1.000000
440410.60999634,4464080.50999634,5.94999981,0,255,0,4.000000,2.000000,373227.031250,100.000000,1.000000
440408.47999146,4464079.78999512,6.59999990,27,255,0,4.000000,0.000000,373227.031250,63.000000,1.000000
440407.76999237,4464076.28999512,6.38999987,18,255,0,4.000000,0.000000,373227.031250,63.000000,1.000000
440407.11999084,4464074.72000305,5.34000015,0,228,26,4.000000,16.000000,373227.031250,63.000000,1.000000
440408.32999756,4464077.28999512,5.88000011,0,252,2,4.000000,0.000000,373227.125000,63.000000,1.000000
440413.95998718,4464080.50000183,6.67999983,31,255,0,4.000000,4.000000,373227.218750,62.000000,1.000000
440410.54999115,4464080.44999878,6.03000021,3,255,0,4.000000,16.000000,373227.406250,63.000000,1.000000
440411.73999359,4464070.09999268,6.46000004,21,255,0,4.000000,2.000000,373227.625000,100.000000,1.000000
440414.99999573,4464080.86000244,6.61000013,28,255,0,5.000000,15.000000,373306.781250,63.000000,1.000000
440415.77000000,4464071.92999451,6.67999983,31,255,0,5.000000,15.000000,373307.062500,63.000000,1.000000
440412.42998840,4464070.00000183,6.61999989,29,255,0,5.000000,31.000000,373307.656250,63.000000,1.000000
440410.63999512,4464072.69999878,6.50000000,23,255,0,5.000000,15.000000,373307.968750,63.000000,1.000000
440409.28999664,4464079.44000427,6.59999990,27,255,0,5.000000,15.000000,373307.968750,63.000000,1.000000
440409.27999451,4464077.33999817,6.38000011,18,255,0,5.000000,31.000000,373308.062500,63.000000,1.000000
440412.24000122,4464070.55000488,6.48000002,23,255,0,5.000000,29.000000,373308.156250,63.000000,1.000000
440414.85999634,4464080.77000610,6.67000008,30,255,0,5.000000,25.000000,373308.187500,63.000000,1.000000
440409.32999756,4464072.49000732,6.05000019,4,255,0,5.000000,15.000000,373308.281250,63.000000,1.000000
440411.08999207,4464070.95999329,6.40999985,19,255,0,5.000000,13.000000,373308.375000,63.000000,1.000000
440410.92999603,4464069.25999634,5.76999998,0,247,7,5.000000,29.000000,373308.468750,63.000000,1.000000
440409.19999268,4464078.74000732,6.40999985,19,255,0,5.000000,13.000000,373308.468750,60.000000,1.000000
440411.04999115,4464080.78999512,6.51000023,23,255,0,5.000000,27.000000,373308.468750,63.000000,1.000000
440408.28999664,4464076.08000366,6.51999998,24,255,0,5.000000,29.000000,373308.656250,119.000000,1.000000
440411.01999237,4464069.94999878,5.55999994,0,238,16,5.000000,27.000000,373308.781250,63.000000,1.000000
440409.67999603,4464077.83000366,6.26000023,13,255,0,5.000000,27.000000,373308.781250,63.000000,1.000000
440409.46999695,4464078.97999756,6.34000015,16,255,0,5.000000,11.000000,373308.781250,63.000000,1.000000
440409.43999817,4464079.33999817,6.55999994,26,255,0,5.000000,11.000000,373308.781250,63.000000,1.000000
440413.47999146,4464081.58999817,6.57999992,26,255,0,5.000000,23.000000,373308.781250,63.000000,1.000000
440410.75999786,4464071.33000366,6.26000023,13,255,0,5.000000,11.000000,373308.875000,63.000000,1.000000
440407.83999207,4464075.97000305,6.65000010,29,255,0,5.000000,13.000000,373308.875000,62.000000,1.000000
440409.64999725,4464076.36999695,6.55999994,26,255,0,5.000000,27.000000,373308.968750,100.000000,1.000000
440415.50999023,4464080.86000244,6.57999992,26,255,0,5.000000,5.000000,373308.968750,63.000000,1.000000
440412.42998840,4464069.66000549,6.38999987,18,255,0,5.000000,25.000000,373309.062500,60.000000,1.000000
440410.18999817,4464070.33000366,5.84999990,0,250,4,5.000000,27.000000,373309.062500,63.000000,1.000000
440411.77999451,4464069.99000732,5.98999977,1,255,0,5.000000,9.000000,373309.156250,59.000000,1.000000
440411.37999298,4464069.72999756,6.09000015,5,255,0,5.000000,9.000000,373309.281250,57.000000,1.000000
440408.64999725,4464073.91000549,6.55999994,26,255,0,5.000000,11.000000,373309.281250,63.000000,1.000000
440410.37999298,4464071.59999268,6.11000013,6,255,0,5.000000,25.000000,373309.375000,63.000000,1.000000
440407.58999207,4464075.36000244,4.88999987,0,209,45,5.000000,27.000000,373309.375000,63.000000,1.000000
440409.98999359,4464070.31999390,5.82999992,0,249,5,5.000000,9.000000,373309.468750,62.000000,1.000000
440408.60999634,4464075.75000183,6.55999994,26,255,0,5.000000,9.000000,373309.562500,63.000000,1.000000
440410.95999481,4464069.17999451,5.76999998,0,247,7,5.000000,23.000000,373309.656250,57.000000,1.000000
440410.91999390,4464069.53999512,5.92000008,0,253,1,5.000000,23.000000,373309.656250,57.000000,1.000000
440412.83999207,4464070.58000366,6.42999983,20,255,0,5.000000,5.000000,373309.687500,60.000000,1.000000
440408.21999695,4464073.59999268,5.67000008,0,243,11,5.000000,25.000000,373309.687500,63.000000,1.000000
440407.81999542,4464076.33999817,6.53999996,25,255,0,5.000000,9.000000,373309.687500,63.000000,1.000000
440410.39999725,4464070.20999329,5.98000002,1,255,0,5.000000,23.000000,373309.781250,60.000000,1.000000
440409.20999481,4464078.75999634,6.44999981,21,255,0,5.000000,7.000000,373309.781250,63.000000,1.000000
440412.19999268,4464070.80999939,6.50000000,23,255,0,5.000000,5.000000,373309.875000,60.000000,1.000000
440408.99999573,4464078.61000244,6.09000015,5,255,0,5.000000,7.000000,373309.875000,63.000000,1.000000
440408.78999664,4464080.03999512,6.34999990,17,255,0,5.000000,23.000000,373309.875000,63.000000,1.000000
440410.19999268,4464080.19999878,6.51999998,24,255,0,5.000000,3.000000,373310.375000,63.000000,1.000000
440407.80999329,4464074.58999817,5.90000010,0,252,2,5.000000,5.000000,373310.468750,63.000000,1.000000
440411.44999268,4464070.05000488,6.65000010,29,255,0,5.000000,17.000000,373310.781250,55.000000,1.000000
440411.21999695,4464069.34999268,5.92999983,0,254,0,5.000000,17.000000,373310.875000,100.000000,1.000000
440410.44999268,4464071.38000671,6.07000017,5,255,0,5.000000,17.000000,373310.968750,60.000000,1.000000
440407.83999207,4464075.81999390,6.61000013,28,255,0,5.000000,3.000000,373310.968750,63.000000,1.000000
440410.54999115,4464069.67000000,5.19000006,0,222,32,5.000000,1.000000,373311.062500,56.000000,1.000000
440409.44999268,4464080.75999634,5.71000004,0,244,10,5.000000,17.000000,373311.062500,63.000000,1.000000
440409.34999420,4464078.59999268,6.28999996,14,255,0,5.000000,1.000000,373311.187500,63.000000,1.000000
440408.61999084,4464078.27000610,5.51999998,0,236,18,5.000000,17.000000,373311.281250,100.000000,1.000000
440408.53999664,4464078.99000732,5.57999992,0,239,15,5.000000,1.000000,373311.281250,100.000000,1.000000
440408.48999359,4464079.63000671,5.40999985,0,231,23,5.000000,1.000000,373311.281250,63.000000,1.000000
440408.39999725,4464073.45999329,5.86999989,0,251,3,5.000000,1.000000,373311.375000,60.000000,1.000000
440412.36999084,4464070.36000244,6.51999998,24,255,0,5.000000,28.000000,373311.468750,58.000000,1.000000
440407.74999573,4464075.03999512,5.03999996,0,216,38,5.000000,17.000000,373311.468750,63.000000,1.000000
440409.48999359,4464078.88000671,6.51000023,23,255,0,5.000000,30.000000,373311.468750,63.000000,1.000000
440409.17999603,4464078.69000427,6.46999979,22,255,0,5.000000,30.000000,373311.562500,63.000000,1.000000
440409.04999115,4464080.16000549,6.28000021,14,255,0,5.000000,30.000000,373311.562500,63.000000,1.000000
440411.25999786,4464080.99000732,6.28999996,14,255,0,5.000000,12.000000,373311.562500,63.000000,1.000000
440412.68999817,4464070.47999756,6.67000008,30,255,0,5.000000,26.000000,373311.781250,59.000000,1.000000
440409.78999664,4464080.69000427,6.28999996,14,255,0,5.000000,28.000000,373311.781250,63.000000,1.000000
440409.18999817,4464078.05000488,6.00000000,2,255,0,5.000000,12.000000,373311.875000,63.000000,1.000000
440408.99999573,4464080.20999329,6.32000017,15,255,0,5.000000,12.000000,373311.875000,63.000000,1.000000
440411.28999664,4464068.91000549,5.86999989,0,251,3,5.000000,10.000000,373311.968750,54.000000,1.000000
440411.15999176,4464070.80999939,6.57999992,26,255,0,5.000000,26.000000,373311.968750,58.000000,1.000000
440408.75999786,4464073.94000427,5.88999987,0,252,2,5.000000,28.000000,373311.968750,61.000000,1.000000
440408.55999329,4464075.80000488,6.63000011,29,255,0,5.000000,12.000000,373311.968750,63.000000,1.000000
440408.43999817,4464078.80000488,5.55000019,0,237,17,5.000000,28.000000,373311.968750,63.000000,1.000000
440415.05999329,4464081.13000671,6.55999994,26,255,0,5.000000,22.000000,373311.968750,63.000000,1.000000
440412.44999268,4464070.59999268,6.61000013,28,255,0,5.000000,24.000000,373312.062500,60.000000,1.000000
440407.83999207,4464075.34999268,5.92000008,0,253,1,5.000000,28.000000,373312.062500,63.000000,1.000000
440407.72999146,4464076.36000244,5.84000015,0,250,4,5.000000,12.000000,373312.062500,63.000000,1.000000
440407.15999176,4464076.19999878,5.13999987,0,220,34,5.000000,12.000000,373312.187500,63.000000,1.000000
440408.98999359,4464080.47000305,6.17999983,9,255,0,5.000000,10.000000,373312.187500,63.000000,1.000000
440411.62999298,4464069.63000671,5.57000017,0,238,16,5.000000,8.000000,373312.281250,100.000000,1.000000
440411.54999115,4464070.41000549,6.51999998,24,255,0,5.000000,8.000000,373312.281250,59.000000,1.000000
440411.15999176,4464071.20999329,6.59999990,27,255,0,5.000000,8.000000,373312.375000,60.000000,1.000000
440408.76999237,4464072.30999939,6.55999994,26,255,0,5.000000,26.000000,373312.375000,52.000000,1.000000
440408.56999542,4464079.28000061,5.50000000,0,235,19,5.000000,10.000000,373312.375000,63.000000,1.000000
440408.23999359,4464075.42999451,5.96000004,0,255,0,5.000000,26.000000,373312.468750,63.000000,1.000000
440410.97999146,4464070.13000671,6.48999977,23,255,0,5.000000,6.000000,373312.781250,60.000000,1.000000
440410.96999695,4464071.05999939,6.34000015,16,255,0,5.000000,6.000000,373312.781250,63.000000,1.000000
440408.56999542,4464073.63000671,5.88999987,0,252,2,5.000000,8.000000,373312.781250,62.000000,1.000000
440411.22999146,4464069.92999451,5.98999977,1,255,0,5.000000,20.000000,373313.062500,61.000000,1.000000
440408.81999542,4464079.17999451,5.55999994,0,238,16,5.000000,6.000000,373313.062500,63.000000,1.000000
440408.36999084,4464073.47000305,5.88999987,0,252,2,5.000000,22.000000,373313.187500,63.000000,1.000000
440407.89999725,4464075.86999695,6.59999990,27,255,0,5.000000,6.000000,373313.281250,63.000000,1.000000
440410.04999115,4464071.44999878,6.07999992,5,255,0,5.000000,20.000000,373313.375000,63.000000,1.000000
440407.68999817,4464074.94000427,5.01999998,0,215,39,5.000000,6.000000,373313.375000,63.000000,1.000000
440409.03999664,4464078.58999817,6.42999983,20,255,0,5.000000,4.000000,373313.468750,127.000000,1.000000
440407.54999115,4464075.33000366,5.01999998,0,215,39,5.000000,20.000000,373313.781250,62.000000,1.000000
440411.40999176,4464068.97000305,5.94000006,0,255,0,5.000000,0.000000,373313.875000,63.000000,1.000000
440410.98999359,4464069.24000732,5.92999983,0,254,0,5.000000,16.000000,373313.968750,63.000000,1.000000
440408.55999329,4464072.52000610,5.21000004,0,223,31,5.000000,18.000000,373314.062500,100.000000,1.000000
440408.44999268,4464075.09999268,6.13999987,8,255,0,5.000000,18.000000,373314.062500,100.000000,1.000000
440410.59999420,4464070.28000061,5.86999989,0,251,3,5.000000,0.000000,373314.187500,63.000000,1.000000
440407.96999695,4464075.81999390,6.46000004,21,255,0,5.000000,2.000000,373314.187500,100.000000,1.000000
440407.92999603,4464075.95999329,6.55000019,26,255,0,5.000000,18.000000,373314.187500,100.000000,1.000000
440410.35999634,4464078.74000732,6.59999990,27,255,0,5.000000,16.000000,373314.187500,63.000000,1.000000
440409.99999573,4464080.36000244,6.42000008,20,255,0,5.000000,16.000000,373314.281250,63.000000,1.000000
440408.14999725,4464074.97000305,5.82999992,0,249,5,5.000000,16.000000,373314.562500,63.000000,1.000000
440407.72999146,4464074.41000549,5.05999994,0,216,38,5.000000,16.000000,373314.687500,63.000000,1.000000
440410.78999664,4464069.11999695,5.88000011,0,252,2,6.000000,8.000000,373350.968750,63.000000,1.000000
440412.32999756,4464070.03999512,6.51999998,24,255,0,6.000000,0.000000,373353.593750,63.000000,1.000000
440415.00999023,4464080.81999390,6.61000013,28,255,0,3.000000,29.000000,373180.968750,55.000000,1.000000
440415.02999451,4464080.58000366,6.63999987,29,255,0,3.000000,11.000000,373181.656250,63.000000,1.000000
440410.95999481,4464078.67000000,6.36999989,17,255,0,3.000000,29.000000,373181.781250,57.000000,1.000000
440411.12999298,4464080.36000244,6.19999981,10,255,0,3.000000,13.000000,373181.781250,56.000000,1.000000
440410.08999207,4464080.44000427,6.32999992,16,255,0,3.000000,13.000000,373181.968750,55.000000,1.000000
440409.64999725,4464080.27000610,6.13999987,8,255,0,3.000000,29.000000,373182.062500,55.000000,1.000000
440408.96999695,4464079.86000244,6.63999987,29,255,0,3.000000,29.000000,373182.156250,55.000000,1.000000
440408.99999573,4464080.17999451,6.30999994,15,255,0,3.000000,13.000000,373182.156250,55.000000,1.000000
440409.01999237,4464080.58000366,5.82000017,0,249,5,3.000000,13.000000,373182.156250,55.000000,1.000000
440408.07999756,4464076.16000549,5.80000019,0,248,6,3.000000,29.000000,373182.281250,59.000000,1.000000
440408.50999786,4464079.97999756,6.26000023,13,255,0,3.000000,29.000000,373182.281250,56.000000,1.000000
440407.58999207,4464076.19000427,5.84999990,0,250,4,3.000000,29.000000,373182.375000,58.000000,1.000000
440407.56999542,4464076.17000000,5.36000013,0,229,25,3.000000,13.000000,373182.375000,59.000000,1.000000
440413.45998718,4464080.84999268,6.51000023,23,255,0,3.000000,9.000000,373182.562500,63.000000,1.000000
440408.93999817,4464080.45999329,6.05000019,4,255,0,3.000000,27.000000,373182.781250,63.000000,1.000000
440408.96999695,4464080.69999878,5.76999998,0,247,7,3.000000,11.000000,373182.781250,63.000000,1.000000
440407.68999817,4464076.00999634,6.44999981,21,255,0,3.000000,27.000000,373182.968750,63.000000,1.000000
440414.33999207,4464080.77000610,6.67000008,30,255,0,3.000000,7.000000,373182.968750,63.000000,1.000000
440408.93999817,4464079.77000610,6.53999996,25,255,0,3.000000,9.000000,373183.562500,63.000000,1.000000
440408.94999268,4464080.08000366,6.34000015,16,255,0,3.000000,25.000000,373183.562500,63.000000,1.000000
440408.94999268,4464080.45999329,5.84000015,0,250,4,3.000000,25.000000,373183.562500,63.000000,1.000000
440408.96999695,4464079.86999695,6.61999989,29,255,0,3.000000,25.000000,373183.656250,63.000000,1.000000
440408.96999695,4464080.25000183,5.98999977,1,255,0,3.000000,25.000000,373183.656250,63.000000,1.000000
440407.47999146,4464076.06999390,6.30999994,15,255,0,3.000000,9.000000,373183.875000,63.000000,1.000000
440410.10999634,4464080.42000000,6.40999985,19,255,0,3.000000,7.000000,373183.968750,63.000000,1.000000
440408.75999786,4464080.42000000,5.65999985,0,242,12,3.000000,7.000000,373184.156250,63.000000,1.000000
440408.25999786,4464079.41000549,6.65999985,30,255,0,3.000000,7.000000,373184.281250,63.000000,1.000000
440408.28999664,4464080.16000549,5.90000010,0,252,2,3.000000,23.000000,373184.281250,63.000000,1.000000
440407.61999084,4464076.11999695,5.42000008,0,232,22,3.000000,7.000000,373184.375000,63.000000,1.000000
440414.03998901,4464081.17999451,6.67999983,31,255,0,3.000000,19.000000,373184.375000,63.000000,1.000000
440409.79999115,4464080.64000122,6.30000019,14,255,0,3.000000,21.000000,373184.562500,63.000000,1.000000
440408.31999542,4464079.31999390,6.36000013,17,255,0,3.000000,5.000000,373184.781250,63.000000,1.000000
440407.93999817,4464079.83000366,5.34999990,0,229,25,3.000000,5.000000,373184.875000,63.000000,1.000000
440414.27000000,4464081.25000183,6.67000008,30,255,0,3.000000,17.000000,373184.875000,63.000000,1.000000
440409.10999634,4464080.05999939,6.05000019,4,255,0,3.000000,3.000000,373185.281250,63.000000,1.000000
440408.64999725,4464080.05999939,6.13000011,7,255,0,3.000000,3.000000,373185.375000,63.000000,1.000000
440411.52999451,4464077.39999573,5.90999985,0,253,1,3.000000,17.000000,373185.468750,63.000000,1.000000
440409.90999176,4464080.03999512,6.46999979,22,255,0,3.000000,1.000000,373185.656250,63.000000,1.000000
440409.89999725,4464080.28999512,6.34999990,17,255,0,3.000000,17.000000,373185.656250,63.000000,1.000000
440409.22999146,4464079.95999329,6.36000013,17,255,0,3.000000,17.000000,373185.781250,63.000000,1.000000
440409.21999695,4464080.17999451,5.94999981,0,255,0,3.000000,1.000000,373185.781250,63.000000,1.000000
440412.45998718,4464080.14000122,6.59999990,27,255,0,3.000000,14.000000,373185.781250,63.000000,1.000000
440408.73999359,4464080.42999451,6.03999996,3,255,0,3.000000,17.000000,373185.875000,63.000000,1.000000
440408.46999695,4464079.94999878,6.36000013,17,255,0,3.000000,17.000000,373185.968750,63.000000,1.000000
440407.71999695,4464076.03999512,5.84000015,0,250,4,3.000000,1.000000,373186.281250,63.000000,1.000000
440407.46999695,4464076.25999634,5.32000017,0,228,26,3.000000,17.000000,373186.468750,63.000000,1.000000
440408.94999268,4464080.22000305,6.19000006,10,255,0,3.000000,12.000000,373187.062500,63.000000,1.000000
440409.86999084,4464080.56999390,6.36999989,17,255,0,3.000000,24.000000,373188.468750,63.000000,1.000000
440409.11999084,4464080.05000488,6.30000019,14,255,0,3.000000,8.000000,373188.562500,63.000000,1.000000
440409.71999695,4464080.47999756,6.01999998,2,255,0,3.000000,4.000000,373189.781250,60.000000,1.000000
440408.68999817,4464079.97000305,6.36000013,17,255,0,3.000000,4.000000,373189.968750,60.000000,1.000000
440408.60999634,4464080.39000122,6.13999987,8,255,0,3.000000,20.000000,373189.968750,60.000000,1.000000
440406.70999481,4464075.89999573,4.88999987,0,209,45,4.000000,15.000000,373220.406250,63.000000,1.000000
440406.64999725,4464075.83999817,5.15999985,0,221,33,4.000000,31.000000,373220.406250,63.000000,1.000000
440406.76999237,4464075.38000671,4.71999979,0,201,53,4.000000,15.000000,373220.406250,63.000000,1.000000
440406.78999664,4464074.91000549,4.86999989,0,208,46,4.000000,15.000000,373220.406250,63.000000,1.000000
440407.21999695,4464076.47999756,5.25000000,0,225,29,4.000000,15.000000,373220.500000,63.000000,1.000000
440407.22999146,4464076.28000061,5.21000004,0,223,31,4.000000,31.000000,373220.500000,63.000000,1.000000
440407.11999084,4464076.11000244,5.80999994,0,249,5,4.000000,31.000000,373220.500000,63.000000,1.000000
440407.07999756,4464075.95999329,6.03999996,3,255,0,4.000000,15.000000,373220.500000,63.000000,1.000000
440407.12999298,4464075.42999451,5.86000013,0,251,3,4.000000,15.000000,373220.500000,63.000000,1.000000
440407.12999298,4464073.75999634,6.36000013,17,255,0,4.000000,31.000000,373220.531250,63.000000,1.000000
440407.58999207,4464079.34999268,4.53000021,0,194,60,4.000000,31.000000,373220.625000,63.000000,1.000000
440407.55999329,4464079.16000549,4.71000004,0,201,53,4.000000,15.000000,373220.625000,63.000000,1.000000
440407.55999329,4464078.99000732,4.92999983,0,211,43,4.000000,31.000000,373220.625000,63.000000,1.000000
440407.56999542,4464078.74000732,4.94999981,0,212,42,4.000000,15.000000,373220.625000,63.000000,1.000000
440407.61999084,4464078.25999634,4.82999992,0,207,47,4.000000,15.000000,373220.625000,63.000000,1.000000
440407.63999512,4464077.81999390,4.92999983,0,211,43,4.000000,15.000000,373220.625000,63.000000,1.000000
440407.47999146,4464075.99000732,6.23000002,11,255,0,4.000000,31.000000,373220.625000,63.000000,1.000000
440407.55999329,4464075.61000244,5.94000006,0,255,0,4.000000,15.000000,373220.625000,63.000000,1.000000
440407.66999390,4464075.17999451,5.42999983,0,232,22,4.000000,31.000000,373220.625000,63.000000,1.000000
440407.67999603,4464074.92000000,5.42999983,0,232,22,4.000000,15.000000,373220.625000,63.000000,1.000000
440407.52999451,4464074.50999634,6.44999981,21,255,0,4.000000,15.000000,373220.625000,63.000000,1.000000
440407.54999115,4464074.28999512,6.36000013,17,255,0,4.000000,31.000000,373220.625000,63.000000,1.000000
440407.55999329,4464074.02000610,6.38999987,18,255,0,4.000000,15.000000,373220.625000,63.000000,1.000000
440407.78999664,4464073.30000488,5.69999981,0,244,10,4.000000,31.000000,373220.625000,63.000000,1.000000
440407.84999420,4464072.75999634,5.19000006,0,222,32,4.000000,31.000000,373220.625000,63.000000,1.000000
440407.76999237,4464080.09999268,5.05000019,0,216,38,4.000000,31.000000,373220.718750,61.000000,1.000000
440407.77999451,4464079.84999268,5.05000019,0,216,38,4.000000,15.000000,373220.718750,62.000000,1.000000
440407.90999176,4464079.22999756,5.36999989,0,230,24,4.000000,15.000000,373220.718750,63.000000,1.000000
440407.70999481,4464079.17999451,5.53000021,0,237,17,4.000000,15.000000,373220.718750,60.000000,1.000000
440407.94999268,4464078.33999817,5.25000000,0,225,29,4.000000,15.000000,373220.718750,63.000000,1.000000
440407.66999390,4464078.72000305,6.03999996,3,255,0,4.000000,31.000000,373220.718750,60.000000,1.000000
440407.65999176,4464078.49000732,6.09999990,6,255,0,4.000000,15.000000,373220.718750,60.000000,1.000000
440407.76999237,4464075.94000427,6.38000011,18,255,0,4.000000,15.000000,373220.718750,63.000000,1.000000
440407.84999420,4464075.58999817,6.61000013,28,255,0,4.000000,31.000000,373220.718750,63.000000,1.000000
440408.04999115,4464072.86999695,5.65999985,0,242,12,4.000000,15.000000,373220.718750,63.000000,1.000000
440408.12999298,4464072.55000488,5.40999985,0,231,23,4.000000,31.000000,373220.718750,63.000000,1.000000
440408.24999573,4464080.52000610,5.42999983,0,232,22,4.000000,31.000000,373220.812500,61.000000,1.000000
440408.18999817,4464080.36999695,5.73999977,0,246,8,4.000000,15.000000,373220.812500,60.000000,1.000000
440408.14999725,4464080.05000488,5.96999979,0,255,0,4.000000,15.000000,373220.812500,59.000000,1.000000
440408.15999176,4464079.86999695,6.17999983,9,255,0,4.000000,31.000000,373220.812500,60.000000,1.000000
440408.20999481,4464079.55000488,6.05000019,4,255,0,4.000000,15.000000,373220.812500,61.000000,1.000000
440408.16999390,4464079.22999756,6.32999992,16,255,0,4.000000,15.000000,373220.812500,60.000000,1.000000
440408.15999176,4464079.09999268,6.44000006,20,255,0,4.000000,31.000000,373220.812500,60.000000,1.000000
440408.14999725,4464078.88000671,6.42999983,20,255,0,4.000000,15.000000,373220.812500,60.000000,1.000000
440408.35999634,4464077.89999573,5.28999996,0,226,28,4.000000,31.000000,373220.812500,63.000000,1.000000
440408.31999542,4464076.92999451,6.03000021,3,255,0,4.000000,15.000000,373220.812500,63.000000,1.000000
440408.31999542,4464076.77000610,6.07999992,5,255,0,4.000000,31.000000,373220.812500,63.000000,1.000000
440408.31999542,4464076.50999634,6.11000013,6,255,0,4.000000,15.000000,373220.812500,63.000000,1.000000
440408.27999451,4464076.39999573,6.25000000,12,255,0,4.000000,31.000000,373220.812500,63.000000,1.000000
440406.34999420,4464075.31999390,4.55000019,0,195,59,4.000000,13.000000,373220.812500,62.000000,1.000000
440406.32999756,4464075.20999329,4.69999981,0,201,53,4.000000,29.000000,373220.812500,62.000000,1.000000
440408.50999786,4464075.14999573,5.55000019,0,237,17,4.000000,31.000000,373220.812500,63.000000,1.000000
440408.35999634,4464072.53000061,6.65999985,30,255,0,4.000000,15.000000,373220.812500,63.000000,1.000000
440408.36999084,4464072.34999268,6.67000008,30,255,0,4.000000,31.000000,373220.812500,63.000000,1.000000
440408.80999329,4464079.94000427,6.05000019,4,255,0,4.000000,15.000000,373220.906250,61.000000,1.000000
440408.76999237,4464079.84999268,6.09000015,5,255,0,4.000000,31.000000,373220.906250,60.000000,1.000000
440408.70999481,4464079.58999817,6.51000023,23,255,0,4.000000,31.000000,373220.906250,58.000000,1.000000
440408.68999817,4464079.38000671,6.63000011,29,255,0,4.000000,15.000000,373220.906250,58.000000,1.000000
440408.79999115,4464078.17999451,6.48000002,23,255,0,4.000000,31.000000,373220.906250,63.000000,1.000000
440408.77999451,4464078.02000610,6.40999985,19,255,0,4.000000,15.000000,373220.906250,62.000000,1.000000
440408.77999451,4464077.86999695,6.19999981,10,255,0,4.000000,31.000000,373220.906250,62.000000,1.000000
440406.85999634,4464076.22000305,5.11999989,0,219,35,4.000000,29.000000,373220.906250,119.000000,1.000000
440409.06999542,4464076.05000488,5.71000004,0,244,10,4.000000,31.000000,373220.906250,63.000000,1.000000
440406.87999298,4464075.91000549,4.96000004,0,212,42,4.000000,13.000000,373220.906250,62.000000,1.000000
440409.09999420,4464075.58000366,5.48000002,0,234,20,4.000000,31.000000,373220.906250,63.000000,1.000000
440406.80999329,4464075.69000427,5.48000002,0,234,20,4.000000,13.000000,373220.906250,63.000000,1.000000
440408.91999390,4464075.67999451,6.30999994,15,255,0,4.000000,15.000000,373220.906250,63.000000,1.000000
440406.84999420,4464075.42000000,5.28000021,0,226,28,4.000000,29.000000,373220.906250,62.000000,1.000000
440406.74999573,4464075.41000549,5.61999989,0,240,14,4.000000,13.000000,373220.906250,63.000000,1.000000
440409.02999451,4464075.06999390,5.94000006,0,255,0,4.000000,15.000000,373220.906250,63.000000,1.000000
440406.90999176,4464074.84999268,4.98000002,0,213,41,4.000000,29.000000,373220.906250,119.000000,1.000000
440406.89999725,4464074.22999756,5.23999977,0,224,30,4.000000,13.000000,373220.906250,62.000000,1.000000
440409.58999207,4464080.72000305,5.65999985,0,242,12,4.000000,15.000000,373221.000000,61.000000,1.000000
440409.48999359,4464080.47999756,6.13999987,8,255,0,4.000000,15.000000,373221.000000,59.000000,1.000000
440409.47999146,4464080.11999695,6.32000017,15,255,0,4.000000,15.000000,373221.000000,59.000000,1.000000
440409.45999481,4464079.59999268,6.65000010,29,255,0,4.000000,31.000000,373221.000000,59.000000,1.000000
440407.50999786,4464079.09999268,4.76000023,0,204,50,4.000000,13.000000,373221.000000,118.000000,1.000000
440407.53999664,4464078.88000671,4.84000015,0,207,47,4.000000,29.000000,373221.000000,63.000000,1.000000
440409.49999573,4464078.86999695,6.61000013,28,255,0,4.000000,15.000000,373221.000000,61.000000,1.000000
440407.55999329,4464078.39999573,4.75000000,0,203,51,4.000000,29.000000,373221.000000,63.000000,1.000000
440409.52999451,4464078.28000061,6.61999989,29,255,0,4.000000,31.000000,373221.000000,62.000000,1.000000
440407.55999329,4464077.75999634,4.98000002,0,213,41,4.000000,13.000000,373221.000000,63.000000,1.000000
440409.53999664,4464078.02000610,6.61000013,28,255,0,4.000000,15.000000,373221.000000,63.000000,1.000000
440409.54999115,4464077.80999939,6.63999987,29,255,0,4.000000,31.000000,373221.000000,63.000000,1.000000
440407.59999420,4464076.41000549,5.05999994,0,216,38,4.000000,13.000000,373221.000000,62.000000,1.000000
440407.57999756,4464076.30999939,5.23000002,0,224,30,4.000000,29.000000,373221.000000,119.000000,1.000000
440407.57999756,4464076.06999390,5.30000019,0,227,27,4.000000,13.000000,373221.031250,62.000000,1.000000
440407.43999817,4464076.28000061,6.15000010,8,255,0,4.000000,29.000000,373221.031250,63.000000,1.000000
440407.41999390,4464076.09999268,6.32999992,16,255,0,4.000000,13.000000,373221.031250,63.000000,1.000000
440407.54999115,4464075.31999390,5.51999998,0,236,18,4.000000,13.000000,373221.031250,62.000000,1.000000
440407.57999756,4464075.06999390,5.38999987,0,231,23,4.000000,29.000000,373221.031250,62.000000,1.000000
440407.58999207,4464074.78999512,5.32999992,0,228,26,4.000000,13.000000,373221.031250,62.000000,1.000000
440407.43999817,4464074.25999634,6.48000002,23,255,0,4.000000,29.000000,373221.031250,63.000000,1.000000
440407.46999695,4464073.89999573,6.21999979,11,255,0,4.000000,13.000000,373221.031250,63.000000,1.000000
440407.47999146,4464073.70999329,6.19999981,10,255,0,4.000000,29.000000,373221.031250,63.000000,1.000000
440407.65999176,4464072.92000000,5.28999996,0,226,28,4.000000,13.000000,373221.031250,61.000000,1.000000
440407.69999268,4464072.42999451,5.21999979,0,223,31,4.000000,13.000000,373221.031250,61.000000,1.000000
440410.22999146,4464069.36999695,5.15000010,0,220,34,4.000000,31.000000,373221.031250,63.000000,1.000000
440410.10999634,4464080.72999756,6.21999979,11,255,0,4.000000,31.000000,373221.125000,60.000000,1.000000
440408.09999420,4464080.39999573,5.15000010,0,220,34,4.000000,13.000000,373221.125000,61.000000,1.000000
440408.09999420,4464080.25999634,5.23000002,0,224,30,4.000000,29.000000,373221.125000,61.000000,1.000000
440410.05999329,4464080.19999878,6.65000010,29,255,0,4.000000,15.000000,373221.125000,58.000000,1.000000
440407.95999481,4464079.88000671,6.25000000,12,255,0,4.000000,13.000000,373221.125000,113.000000,1.000000
440407.93999817,4464079.53999512,6.44999981,21,255,0,4.000000,13.000000,373221.125000,112.000000,1.000000
440407.92999603,4464079.39999573,6.53000021,24,255,0,4.000000,29.000000,373221.125000,112.000000,1.000000
440410.08999207,4464079.16000549,6.63999987,29,255,0,4.000000,31.000000,373221.125000,61.000000,1.000000
440407.91999390,4464079.17000000,6.63000011,29,255,0,4.000000,13.000000,373221.125000,112.000000,1.000000
440408.01999237,4464078.75000183,5.96000004,0,255,0,4.000000,29.000000,373221.125000,61.000000,1.000000
440408.01999237,4464077.92000000,5.75000000,0,246,8,4.000000,29.000000,373221.125000,62.000000,1.000000
440408.05999329,4464077.42000000,5.63999987,0,241,13,4.000000,29.000000,373221.125000,63.000000,1.000000
440408.01999237,4464076.67000000,6.28000021,14,255,0,4.000000,29.000000,373221.125000,63.000000,1.000000
440408.05999329,4464076.14999573,6.11999989,7,255,0,4.000000,29.000000,373221.125000,63.000000,1.000000
440408.04999115,4464075.92999451,6.30000019,14,255,0,4.000000,13.000000,373221.125000,119.000000,1.000000
440408.16999390,4464072.94000427,5.51999998,0,236,18,4.000000,29.000000,373221.125000,62.000000,1.000000
440408.14999725,4464072.80999939,5.82999992,0,249,5,4.000000,13.000000,373221.125000,62.000000,1.000000
440408.22999146,4464072.39000122,5.40000010,0,231,23,4.000000,29.000000,373221.125000,61.000000,1.000000
440408.04999115,4464072.28000061,6.61000013,28,255,0,4.000000,13.000000,373221.125000,62.000000,1.000000
440410.70999481,4464069.78000061,5.34999990,0,229,25,4.000000,15.000000,373221.125000,63.000000,1.000000
440410.69999268,4464069.63000671,5.42999983,0,232,22,4.000000,31.000000,373221.125000,63.000000,1.000000
440408.35999634,4464080.50999634,5.51999998,0,236,18,4.000000,29.000000,373221.218750,114.000000,1.000000
440408.31999542,4464080.34999268,5.78999996,0,248,6,4.000000,13.000000,373221.218750,113.000000,1.000000
440410.38999512,4464080.25999634,6.46000004,21,255,0,4.000000,15.000000,373221.218750,59.000000,1.000000
440408.32999756,4464080.17000000,5.76000023,0,246,8,4.000000,29.000000,373221.218750,58.000000,1.000000
440410.37999298,4464080.14999573,6.61999989,29,255,0,4.000000,31.000000,373221.218750,58.000000,1.000000
440410.39999725,4464079.84999268,6.53000021,24,255,0,4.000000,15.000000,373221.218750,60.000000,1.000000
440408.28999664,4464079.81999390,6.17000008,9,255,0,4.000000,29.000000,373221.218750,57.000000,1.000000
440410.43999817,4464079.64000122,6.44000006,20,255,0,4.000000,31.000000,373221.218750,61.000000,1.000000
440410.39999725,4464079.28000061,6.59999990,27,255,0,4.000000,31.000000,373221.218750,61.000000,1.000000
440408.26999237,4464079.06999390,6.44999981,21,255,0,4.000000,29.000000,373221.218750,113.000000,1.000000
440408.23999359,4464078.89999573,6.57000017,26,255,0,4.000000,13.000000,373221.218750,57.000000,1.000000
440408.22999146,4464078.75999634,6.65000010,29,255,0,4.000000,29.000000,373221.218750,56.000000,1.000000
