//X,Y,Z,R,G,B,Point Source ID,User Data,Time,Intensity,Classification
440403.26999237,4464079.94000427,5.03000021,0,215,39,4.000000,30.000000,373222.906250,50.000000,1.000000
440401.23999359,4464079.88000671,4.78000021,0,204,50,4.000000,12.000000,373222.906250,50.000000,1.000000
440403.25999786,4464079.70999329,5.13000011,0,219,35,4.000000,14.000000,373222.906250,49.000000,1.000000
440403.18999817,4464079.28000061,4.48000002,0,192,62,4.000000,30.000000,373222.906250,54.000000,1.000000
440401.24999573,4464079.63000671,5.21999979,0,223,31,4.000000,12.000000,373222.906250,48.000000,1.000000
440401.21999695,4464079.42000000,5.11999989,0,219,35,4.000000,28.000000,373222.906250,49.000000,1.000000
440401.17999603,4464079.00999634,5.15999985,0,221,33,4.000000,28.000000,373222.906250,50.000000,1.000000
440401.97999146,4464082.17000000,4.46999979,0,191,63,4.000000,28.000000,373223.031250,48.000000,1.000000
440402.03999664,4464081.84999268,5.48999977,0,235,19,4.000000,12.000000,373223.031250,43.000000,1.000000
440401.92999603,4464081.42999451,4.76999998,0,204,50,4.000000,28.000000,373223.031250,48.000000,1.000000
440401.99999573,4464081.44000427,5.51999998,0,236,18,4.000000,12.000000,373223.031250,43.000000,1.000000
440401.95999481,4464081.22999756,5.40999985,0,231,23,4.000000,28.000000,373223.031250,45.000000,1.000000
440401.98999359,4464081.13000671,5.80000019,0,248,6,4.000000,12.000000,373223.031250,42.000000,1.000000
440401.89999725,4464080.72999756,5.11999989,0,219,35,4.000000,28.000000,373223.031250,47.000000,1.000000
440401.87999298,4464080.50000183,5.19000006,0,222,32,4.000000,12.000000,373223.031250,47.000000,1.000000
440403.79999115,4464079.97000305,4.76000023,0,204,50,4.000000,14.000000,373223.031250,53.000000,1.000000
440401.73999359,4464079.49000732,4.65000010,0,198,56,4.000000,12.000000,373223.031250,52.000000,1.000000
440402.56999542,4464082.83999817,4.51000023,0,192,62,4.000000,12.000000,373223.125000,47.000000,1.000000
440402.51999237,4464082.28000061,4.53000021,0,194,60,4.000000,28.000000,373223.125000,96.000000,1.000000
440402.48999359,4464081.99000732,4.46999979,0,191,63,4.000000,12.000000,373223.125000,49.000000,1.000000
440402.54999115,4464081.75000183,5.42000008,0,232,22,4.000000,28.000000,373223.125000,43.000000,1.000000
440402.49999573,4464081.42999451,5.26000023,0,225,29,4.000000,12.000000,373223.125000,45.000000,1.000000
440402.53999664,4464081.42999451,5.69000006,0,243,11,4.000000,28.000000,373223.125000,42.000000,1.000000
440402.50999786,4464081.16000549,5.69999981,0,244,10,4.000000,12.000000,373223.125000,43.000000,1.000000
440402.35999634,4464080.25999634,4.80999994,0,206,48,4.000000,28.000000,373223.125000,50.000000,1.000000
440402.36999084,4464080.11999695,5.13000011,0,219,35,4.000000,12.000000,373223.125000,48.000000,1.000000
440402.26999237,4464079.42000000,4.84000015,0,207,47,4.000000,28.000000,373223.125000,52.000000,1.000000
440402.25999786,4464079.09999268,5.15000010,0,220,34,4.000000,28.000000,373223.125000,51.000000,1.000000
440402.92999603,4464082.28000061,4.50000000,0,192,62,4.000000,28.000000,373223.218750,49.000000,1.000000
440402.87999298,4464081.86000244,4.46000004,0,191,63,4.000000,28.000000,373223.218750,50.000000,1.000000
440402.86999084,4464081.66000549,4.59000015,0,196,58,4.000000,12.000000,373223.218750,50.000000,1.000000
440402.83999207,4464081.22999756,4.65999985,0,199,55,4.000000,12.000000,373223.218750,50.000000,1.000000
440402.95999481,4464081.31999390,6.01000023,2,255,0,4.000000,12.000000,373223.218750,42.000000,1.000000
440402.87999298,4464080.64000122,5.76000023,0,246,8,4.000000,28.000000,373223.218750,45.000000,1.000000
440402.85999634,4464080.41000549,5.82000017,0,249,5,4.000000,12.000000,373223.218750,45.000000,1.000000
440402.76999237,4464079.99000732,4.92999983,0,211,43,4.000000,28.000000,373223.218750,50.000000,1.000000
440402.73999359,4464079.74000732,4.92000008,0,210,44,4.000000,12.000000,373223.218750,50.000000,1.000000
440402.70999481,4464079.52000610,4.80000019,0,205,49,4.000000,28.000000,373223.218750,52.000000,1.000000
440401.52999451,4464082.25999634,4.50000000,0,192,62,4.000000,26.000000,373223.312500,48.000000,1.000000
440403.39999725,4464081.11000244,4.53000021,0,194,60,4.000000,28.000000,373223.312500,51.000000,1.000000
440403.40999176,4464080.94999878,4.73999977,0,203,51,4.000000,12.000000,373223.312500,50.000000,1.000000
440401.54999115,4464081.39999573,5.63999987,0,241,13,4.000000,26.000000,373223.312500,44.000000,1.000000
440403.47999146,4464081.05999939,5.53999996,0,237,17,4.000000,28.000000,373223.312500,45.000000,1.000000
440401.49999573,4464081.09999268,5.48999977,0,235,19,4.000000,10.000000,373223.312500,45.000000,1.000000
440401.50999786,4464080.78999512,5.67000008,0,243,11,4.000000,10.000000,373223.312500,44.000000,1.000000
440403.34999420,4464080.14999573,4.90999985,0,210,44,4.000000,12.000000,373223.312500,51.000000,1.000000
440401.46999695,4464080.36999695,5.69000006,0,243,11,4.000000,10.000000,373223.312500,45.000000,1.000000
440403.33999207,4464079.81999390,5.17999983,0,222,32,4.000000,12.000000,373223.312500,50.000000,1.000000
440401.27999451,4464079.78999512,4.73999977,0,203,51,4.000000,26.000000,373223.312500,52.000000,1.000000
440403.22999146,4464079.36999695,4.46000004,0,191,63,4.000000,28.000000,373223.312500,56.000000,1.000000
440401.28999664,4464079.64000122,5.00000000,0,214,40,4.000000,10.000000,373223.312500,51.000000,1.000000
440401.27999451,4464079.50000183,5.09000015,0,218,36,4.000000,26.000000,373223.312500,51.000000,1.000000
440401.25999786,4464079.24000732,5.09999990,0,218,36,4.000000,10.000000,373223.312500,52.000000,1.000000
440401.23999359,4464079.08000366,5.11999989,0,219,35,4.000000,26.000000,373223.312500,52.000000,1.000000
440402.19999268,4464082.00999634,4.65000010,0,198,56,4.000000,10.000000,373223.406250,49.000000,1.000000
440402.28999664,4464082.06999390,5.28999996,0,226,28,4.000000,26.000000,373223.406250,45.000000,1.000000
440402.25999786,4464081.81999390,5.28000021,0,226,28,4.000000,10.000000,373223.406250,46.000000,1.000000
440402.21999695,4464081.42000000,5.34000015,0,228,26,4.000000,10.000000,373223.406250,46.000000,1.000000
440402.22999146,4464081.17000000,5.78999996,0,248,6,4.000000,10.000000,373223.406250,44.000000,1.000000
440402.07999756,4464080.14999573,5.32000017,0,228,26,4.000000,10.000000,373223.406250,49.000000,1.000000
440401.96999695,4464079.58999817,4.92999983,0,211,43,4.000000,10.000000,373223.406250,52.000000,1.000000
440401.94999268,4464079.41000549,4.90999985,0,210,44,4.000000,26.000000,373223.406250,53.000000,1.000000
440402.81999542,4464082.39000122,4.57999992,0,195,59,4.000000,10.000000,373223.531250,50.000000,1.000000
440402.76999237,4464081.84999268,4.46000004,0,191,63,4.000000,26.000000,373223.531250,51.000000,1.000000
440402.73999359,4464081.45999329,4.59000015,0,196,58,4.000000,26.000000,373223.531250,51.000000,1.000000
440402.77999451,4464081.20999329,5.07000017,0,217,37,4.000000,26.000000,373223.531250,48.000000,1.000000
440402.81999542,4464081.13000671,5.71999979,0,245,9,4.000000,10.000000,373223.531250,46.000000,1.000000
440402.85999634,4464081.08999817,6.07000017,5,255,0,4.000000,26.000000,373223.531250,44.000000,1.000000
440402.68999817,4464080.50999634,4.96000004,0,212,42,4.000000,10.000000,373223.531250,50.000000,1.000000
440402.61999084,4464079.75000183,5.11999989,0,219,35,4.000000,10.000000,373223.531250,51.000000,1.000000
440403.15999176,4464082.28000061,4.46999979,0,191,63,4.000000,26.000000,373223.625000,51.000000,1.000000
440403.11999084,4464081.36999695,4.94000006,0,211,43,4.000000,10.000000,373223.625000,50.000000,1.000000
440403.10999634,4464081.22000305,5.01999998,0,215,39,4.000000,26.000000,373223.625000,50.000000,1.000000
440403.11999084,4464081.03999512,5.23999977,0,224,30,4.000000,10.000000,373223.625000,49.000000,1.000000
440401.12999298,4464080.95999329,5.26999998,0,225,29,4.000000,8.000000,373223.625000,48.000000,1.000000
440403.14999725,4464080.83000366,5.80000019,0,248,6,4.000000,10.000000,373223.625000,46.000000,1.000000
440401.06999542,4464080.72000305,5.09999990,0,218,36,4.000000,24.000000,373223.625000,50.000000,1.000000
440400.96999695,4464080.36000244,4.80000019,0,205,49,4.000000,8.000000,373223.625000,100.000000,1.000000
440400.90999176,4464080.11999695,4.57999992,0,195,59,4.000000,24.000000,373223.625000,55.000000,1.000000
440402.87999298,4464079.75000183,4.51000023,0,192,62,4.000000,26.000000,373223.625000,56.000000,1.000000
440400.90999176,4464079.92000000,4.80999994,0,206,48,4.000000,8.000000,373223.625000,54.000000,1.000000
440401.40999176,4464082.30000488,4.50000000,0,192,62,4.000000,24.000000,373223.718750,100.000000,1.000000
440403.28999664,4464080.95999329,4.63000011,0,198,56,4.000000,10.000000,373223.718750,53.000000,1.000000
440403.42999603,4464081.14999573,5.63000011,0,241,13,4.000000,26.000000,373223.718750,47.000000,1.000000
440403.44999268,4464080.97999756,5.86000013,0,251,3,4.000000,10.000000,373223.718750,46.000000,1.000000
440401.35999634,4464080.92000000,5.26000023,0,225,29,4.000000,24.000000,373223.718750,49.000000,1.000000
440403.39999725,4464080.78000061,5.76999998,0,247,7,4.000000,26.000000,373223.718750,47.000000,1.000000
440403.22999146,4464080.19999878,4.92000008,0,210,44,4.000000,10.000000,373223.718750,53.000000,1.000000
440403.20999481,4464080.03999512,4.94999981,0,212,42,4.000000,26.000000,373223.718750,53.000000,1.000000
440403.20999481,4464079.83000366,5.05000019,0,216,38,4.000000,10.000000,373223.718750,53.000000,1.000000
440401.14999725,4464079.67000000,4.96999979,0,213,41,4.000000,8.000000,373223.718750,54.000000,1.000000
440401.12999298,4464079.30000488,5.15999985,0,221,33,4.000000,8.000000,373223.718750,54.000000,1.000000
440401.12999298,4464079.19000427,5.32000017,0,228,26,4.000000,24.000000,373223.718750,53.000000,1.000000
440400.98999359,4464078.72999756,4.80999994,0,206,48,4.000000,8.000000,373223.718750,58.000000,1.000000
440400.97999146,4464078.55999939,4.82999992,0,207,47,4.000000,24.000000,373223.718750,58.000000,1.000000
440401.93999817,4464082.08000366,5.55999994,0,238,16,4.000000,8.000000,373223.812500,46.000000,1.000000
440401.84999420,4464081.78000061,5.17999983,0,222,32,4.000000,24.000000,373223.812500,49.000000,1.000000
440403.74999573,4464081.33000366,4.59999990,0,197,57,4.000000,26.000000,373223.812500,53.000000,1.000000
440401.83999207,4464081.45999329,5.38999987,0,231,23,4.000000,24.000000,373223.812500,49.000000,1.000000
440401.79999115,4464081.17000000,5.34000015,0,228,26,4.000000,8.000000,373223.812500,50.000000,1.000000
440403.79999115,4464080.94999878,5.69999981,0,244,10,4.000000,10.000000,373223.812500,49.000000,1.000000
440401.75999786,4464080.97000305,4.98999977,0,213,41,4.000000,24.000000,373223.812500,51.000000,1.000000
440403.74999573,4464080.72000305,5.21999979,0,223,31,4.000000,26.000000,373223.812500,50.000000,1.000000
440401.74999573,4464080.78999512,5.19000006,0,222,32,4.000000,8.000000,373223.812500,50.000000,1.000000
440403.72999146,4464080.47999756,5.28000021,0,226,28,4.000000,10.000000,373223.812500,50.000000,1.000000
440401.56999542,4464080.11999695,4.55000019,0,195,59,4.000000,8.000000,373223.812500,55.000000,1.000000
440401.58999207,4464079.80999939,4.94999981,0,212,42,4.000000,8.000000,373223.812500,54.000000,1.000000
440401.58999207,4464079.67999451,5.03999996,0,216,38,4.000000,24.000000,373223.812500,54.000000,1.000000
440401.52999451,4464079.38000671,4.90000010,0,210,44,4.000000,8.000000,373223.812500,55.000000,1.000000
440401.45999481,4464078.91000549,4.88000011,0,209,45,4.000000,8.000000,373223.812500,57.000000,1.000000
440401.41999390,4464078.72000305,4.84000015,0,207,47,4.000000,24.000000,373223.812500,57.000000,1.000000
440402.39999725,4464082.70999329,4.88999987,0,209,45,4.000000,24.000000,373223.906250,49.000000,1.000000
440402.26999237,4464082.14999573,4.50000000,0,192,62,4.000000,24.000000,373223.906250,100.000000,1.000000
440402.39999725,4464082.19000427,5.34999990,0,229,25,4.000000,8.000000,373223.906250,48.000000,1.000000
440402.38999512,4464082.03000061,5.38999987,0,231,23,4.000000,24.000000,373223.906250,96.000000,1.000000
440402.35999634,4464081.80999939,5.40999985,0,231,23,4.000000,8.000000,373223.906250,48.000000,1.000000
440402.33999207,4464081.63000671,5.40000010,0,231,23,4.000000,24.000000,373223.906250,97.000000,1.000000
440402.34999420,4464081.28000061,5.61999989,0,240,14,4.000000,24.000000,373223.906250,48.000000,1.000000
440402.36999084,4464081.14000122,5.90999985,0,253,1,4.000000,8.000000,373223.906250,93.000000,1.000000
440402.39999725,4464081.06999390,6.15000010,8,255,0,4.000000,24.000000,373223.906250,45.000000,1.000000
440402.15999176,4464080.36000244,5.28999996,0,226,28,4.000000,24.000000,373223.906250,52.000000,1.000000
440402.02999451,4464079.55000488,5.03000021,0,215,39,4.000000,8.000000,373223.906250,100.000000,1.000000
440401.99999573,4464079.34999268,4.96999979,0,213,41,4.000000,24.000000,373223.906250,100.000000,1.000000
440402.86999084,4464082.00000183,4.53999996,0,194,60,4.000000,8.000000,373224.031250,54.000000,1.000000
440402.82999756,4464081.28000061,4.84999990,0,207,47,4.000000,8.000000,373224.031250,54.000000,1.000000
440403.01999237,4464081.45999329,5.82999992,0,249,5,4.000000,24.000000,373224.031250,47.000000,1.000000
440403.01999237,4464081.28000061,6.03000021,3,255,0,4.000000,8.000000,373224.031250,46.000000,1.000000
440402.89999725,4464080.61000244,5.80999994,0,249,5,4.000000,24.000000,373224.031250,99.000000,1.000000
440402.84999420,4464080.30999939,5.71000004,0,244,10,4.000000,8.000000,373224.031250,51.000000,1.000000
440403.63999512,4464081.36000244,4.63999987,0,198,56,4.000000,8.000000,373224.125000,54.000000,1.000000
440403.71999695,4464081.03000061,5.46000004,0,234,20,4.000000,24.000000,373224.125000,50.000000,1.000000
440401.64999725,4464080.99000732,5.07000017,0,217,37,4.000000,6.000000,373224.125000,52.000000,1.000000
440403.61999084,4464080.53999512,5.23000002,0,224,30,4.000000,24.000000,373224.125000,100.000000,1.000000
440401.59999420,4464080.58999817,5.11999989,0,219,35,4.000000,6.000000,373224.125000,53.000000,1.000000
440403.58999207,4464080.28999512,5.23999977,0,224,30,4.000000,8.000000,373224.125000,53.000000,1.000000
440401.56999542,4464080.42000000,5.11000013,0,219,35,4.000000,22.000000,373224.125000,54.000000,1.000000
440401.39999725,4464079.45999329,4.94999981,0,212,42,4.000000,22.000000,373224.125000,57.000000,1.000000
440401.40999176,4464079.30000488,5.21000004,0,223,31,4.000000,6.000000,373224.125000,56.000000,1.000000
440401.37999298,4464079.09999268,5.15999985,0,221,33,4.000000,22.000000,373224.125000,57.000000,1.000000
440402.37999298,4464082.52000610,4.63000011,0,198,56,4.000000,6.000000,373224.218750,53.000000,1.000000
440402.31999542,4464082.30999939,4.46000004,0,191,63,4.000000,22.000000,373224.218750,55.000000,1.000000
440402.30999329,4464082.06999390,4.55999994,0,195,59,4.000000,6.000000,373224.218750,55.000000,1.000000
440402.45999481,4464082.16000549,5.32000017,0,228,26,4.000000,22.000000,373224.218750,50.000000,1.000000
440402.43999817,4464081.94999878,5.38999987,0,231,23,4.000000,6.000000,373224.218750,50.000000,1.000000
440402.42999603,4464081.78000061,5.40000010,0,231,23,4.000000,22.000000,373224.218750,50.000000,1.000000
440402.32999756,4464081.30000488,5.25000000,0,225,29,4.000000,22.000000,373224.218750,52.000000,1.000000
440402.41999390,4464081.22999756,5.73999977,0,246,8,4.000000,6.000000,373224.218750,49.000000,1.000000
440402.38999512,4464080.86000244,5.78999996,0,248,6,4.000000,6.000000,373224.218750,49.000000,1.000000
440402.05999329,4464080.22000305,4.55999994,0,195,59,4.000000,22.000000,373224.218750,58.000000,1.000000
440402.18999817,4464080.22999756,5.26999998,0,225,29,4.000000,6.000000,373224.218750,54.000000,1.000000
440402.05999329,4464079.53000061,5.03000021,0,215,39,4.000000,22.000000,373224.218750,57.000000,1.000000
440401.99999573,4464079.24000732,4.96999979,0,213,41,4.000000,6.000000,373224.218750,100.000000,1.000000
440402.79999115,4464082.28000061,4.50000000,0,192,62,4.000000,22.000000,373224.312500,56.000000,1.000000
440402.95999481,4464081.17000000,6.11999989,7,255,0,4.000000,22.000000,373224.312500,48.000000,1.000000
440402.91999390,4464080.91000549,6.07000017,5,255,0,4.000000,6.000000,373224.312500,49.000000,1.000000
440402.63999512,4464080.00999634,5.07000017,0,217,37,4.000000,22.000000,373224.312500,56.000000,1.000000
440402.64999725,4464079.83000366,5.21000004,0,223,31,4.000000,6.000000,373224.312500,55.000000,1.000000
440402.58999207,4464079.59999268,5.05999994,0,216,38,4.000000,22.000000,373224.312500,57.000000,1.000000
440402.50999786,4464079.27000610,4.90999985,0,210,44,4.000000,6.000000,373224.312500,59.000000,1.000000
440401.33999207,4464082.33999817,4.48000002,0,192,62,4.000000,4.000000,373224.406250,56.000000,1.000000
440403.24999573,4464081.19999878,4.59000015,0,196,58,4.000000,6.000000,373224.406250,58.000000,1.000000
440401.17999603,4464081.30000488,4.46000004,0,191,63,4.000000,20.000000,373224.406250,59.000000,1.000000
440401.39999725,4464081.25999634,5.50000000,0,235,19,4.000000,20.000000,373224.406250,53.000000,1.000000
440403.39999725,4464080.97999756,5.57000017,0,238,16,4.000000,22.000000,373224.406250,52.000000,1.000000
440401.32999756,4464080.83999817,5.40999985,0,231,23,4.000000,20.000000,373224.406250,54.000000,1.000000
440403.15999176,4464080.27000610,4.82999992,0,207,47,4.000000,22.000000,373224.406250,58.000000,1.000000
440401.38999512,4464080.72000305,5.73999977,0,246,8,4.000000,4.000000,373224.406250,52.000000,1.000000
440403.14999725,4464079.94000427,5.03999996,0,216,38,4.000000,22.000000,373224.406250,58.000000,1.000000
440401.05999329,4464079.92999451,4.88000011,0,209,45,4.000000,4.000000,373224.406250,60.000000,1.000000
440401.02999451,4464079.75000183,4.86999989,0,208,46,4.000000,20.000000,373224.406250,60.000000,1.000000
440400.94999268,4464079.28999512,4.82999992,0,207,47,4.000000,20.000000,373224.406250,62.000000,1.000000
440400.94999268,4464079.08999817,4.98999977,0,213,41,4.000000,4.000000,373224.406250,61.000000,1.000000
440401.93999817,4464082.39999573,5.44999981,0,233,21,4.000000,20.000000,373224.531250,52.000000,1.000000
440403.71999695,4464081.45999329,4.63999987,0,198,56,4.000000,22.000000,373224.531250,57.000000,1.000000
440403.68999817,4464081.20999329,4.65000010,0,198,56,4.000000,6.000000,373224.531250,57.000000,1.000000
440403.78999664,4464080.89999573,5.78000021,0,247,7,4.000000,22.000000,373224.531250,53.000000,1.000000
440401.71999695,4464080.89999573,5.19000006,0,222,32,4.000000,4.000000,373224.531250,55.000000,1.000000
440401.57999756,4464080.58000366,4.78000021,0,204,50,4.000000,20.000000,373224.531250,58.000000,1.000000
440401.63999512,4464080.45999329,5.17000008,0,221,33,4.000000,4.000000,373224.531250,56.000000,1.000000
440401.51999237,4464079.80999939,5.09000015,0,218,36,4.000000,20.000000,373224.531250,59.000000,1.000000
440401.43999817,4464079.49000732,4.96000004,0,212,42,4.000000,4.000000,373224.531250,60.000000,1.000000
440401.47999146,4464079.42000000,5.21999979,0,223,31,4.000000,20.000000,373224.531250,59.000000,1.000000
440401.41999390,4464079.14000122,5.17000008,0,221,33,4.000000,4.000000,373224.531250,60.000000,1.000000
440401.35999634,4464078.91000549,5.05000019,0,216,38,4.000000,20.000000,373224.531250,61.000000,1.000000
440401.27999451,4464078.59999268,4.96000004,0,212,42,4.000000,4.000000,373224.531250,63.000000,1.000000
440402.36999084,4464082.75999634,4.90999985,0,210,44,4.000000,4.000000,373224.625000,55.000000,1.000000
440402.28999664,4464082.31999390,4.88000011,0,209,45,4.000000,4.000000,373224.625000,56.000000,1.000000
440402.36999084,4464082.28000061,5.28000021,0,226,28,4.000000,20.000000,373224.625000,53.000000,1.000000
440402.35999634,4464082.05999939,5.36999989,0,230,24,4.000000,4.000000,373224.625000,53.000000,1.000000
440402.34999420,4464081.91000549,5.38000011,0,230,24,4.000000,20.000000,373224.625000,118.000000,1.000000
440402.24999573,4464081.42999451,5.23000002,0,224,30,4.000000,20.000000,373224.625000,55.000000,1.000000
440404.04999115,4464080.83000366,4.55999994,0,195,59,4.000000,22.000000,373224.625000,61.000000,1.000000
440402.26999237,4464081.27000610,5.48999977,0,235,19,4.000000,4.000000,373224.625000,54.000000,1.000000
440402.34999420,4464081.22999756,5.82999992,0,249,5,4.000000,20.000000,373224.625000,52.000000,1.000000
440402.36999084,4464081.06999390,6.05000019,4,255,0,4.000000,4.000000,373224.625000,51.000000,1.000000
440402.17999603,4464080.69000427,5.44999981,0,233,21,4.000000,20.000000,373224.625000,55.000000,1.000000
440402.08999207,4464080.22999756,5.36000013,0,229,25,4.000000,20.000000,373224.625000,57.000000,1.000000
440401.90999176,4464079.75000183,4.78000021,0,204,50,4.000000,4.000000,373224.625000,62.000000,1.000000
440401.85999634,4464079.55000488,4.71999979,0,201,53,4.000000,20.000000,373224.625000,63.000000,1.000000
440402.80999329,4464082.03999512,4.63999987,0,198,56,4.000000,4.000000,373224.718750,59.000000,1.000000
440402.79999115,4464081.89999573,4.65999985,0,199,55,4.000000,20.000000,373224.718750,59.000000,1.000000
440402.76999237,4464081.50000183,4.57999992,0,195,59,4.000000,20.000000,373224.718750,59.000000,1.000000
440402.72999146,4464081.27000610,4.59999990,0,197,57,4.000000,4.000000,373224.718750,59.000000,1.000000
440402.99999573,4464081.14000122,6.11000013,6,255,0,4.000000,20.000000,373224.718750,52.000000,1.000000
440402.74999573,4464080.61999695,5.11999989,0,219,35,4.000000,4.000000,373224.718750,58.000000,1.000000
440402.84999420,4464080.61999695,5.80999994,0,249,5,4.000000,20.000000,373224.718750,55.000000,1.000000
440402.66999390,4464080.02000610,5.13000011,0,219,35,4.000000,20.000000,373224.718750,59.000000,1.000000
440403.18999817,4464082.72000305,4.48999977,0,192,62,4.000000,4.000000,373224.812500,59.000000,1.000000
440403.10999634,4464081.44999878,4.98999977,0,213,41,4.000000,20.000000,373224.812500,58.000000,1.000000
440403.13999512,4464081.14000122,5.34999990,0,229,25,4.000000,20.000000,373224.812500,57.000000,1.000000
440403.20999481,4464080.89999573,5.78999996,0,248,6,4.000000,20.000000,373224.812500,55.000000,1.000000
440403.01999237,4464080.30000488,5.34999990,0,229,25,4.000000,20.000000,373224.812500,59.000000,1.000000
440402.59999420,4464078.72000305,4.46000004,0,191,63,4.000000,20.000000,373224.812500,63.000000,1.000000
440403.58999207,4464081.59999268,4.63000011,0,198,56,4.000000,20.000000,373224.906250,60.000000,1.000000
440401.65999176,4464081.81999390,5.07000017,0,217,37,4.000000,2.000000,373224.906250,100.000000,1.000000
440403.49999573,4464081.14000122,4.57000017,0,195,59,4.000000,20.000000,373224.906250,126.000000,1.000000
440401.61999084,4464081.30000488,5.26999998,0,225,29,4.000000,18.000000,373224.906250,100.000000,1.000000
440403.68999817,4464081.06999390,5.53000021,0,237,17,4.000000,20.000000,373224.906250,120.000000,1.000000
440403.59999420,4464080.72999756,5.30000019,0,227,27,4.000000,4.000000,373224.906250,58.000000,1.000000
440401.58999207,4464080.72000305,5.44000006,0,233,21,4.000000,2.000000,373224.906250,100.000000,1.000000
440403.50999786,4464080.28999512,5.21000004,0,223,31,4.000000,4.000000,373224.906250,60.000000,1.000000
440401.55999329,4464080.53000061,5.40999985,0,231,23,4.000000,18.000000,373224.906250,100.000000,1.000000
440401.28999664,4464080.03000061,4.76000023,0,204,50,4.000000,2.000000,373224.906250,100.000000,1.000000
440401.25999786,4464079.64999573,4.98000002,0,213,41,4.000000,2.000000,373224.906250,100.000000,1.000000
440401.24999573,4464079.50999634,5.07000017,0,217,37,4.000000,18.000000,373224.906250,100.000000,1.000000
440401.23999359,4464079.27000610,5.13999987,0,220,34,4.000000,2.000000,373224.906250,100.000000,1.000000
440401.09999420,4464078.78000061,5.03999996,0,216,38,4.000000,2.000000,373224.906250,100.000000,1.000000
440402.28999664,4464082.75000183,4.86000013,0,208,46,4.000000,2.000000,373225.031250,100.000000,1.000000
440402.25999786,4464081.88000671,5.28000021,0,226,28,4.000000,18.000000,373225.031250,100.000000,1.000000
440402.22999146,4464081.64999573,5.32000017,0,228,26,4.000000,2.000000,373225.031250,100.000000,1.000000
440402.28999664,4464081.22000305,5.82000017,0,249,5,4.000000,18.000000,373225.031250,100.000000,1.000000
440402.28999664,4464081.02000610,5.96000004,0,255,0,4.000000,2.000000,373225.031250,100.000000,1.000000
440402.05999329,4464080.64999573,5.30000019,0,227,27,4.000000,18.000000,373225.031250,100.000000,1.000000
440403.88999512,4464080.03000061,4.78999996,0,204,50,4.000000,20.000000,373225.031250,63.000000,1.000000
440401.75999786,4464079.70999329,4.55999994,0,195,59,4.000000,2.000000,373225.031250,100.000000,1.000000
440401.53999664,4464078.63000671,4.53999996,0,194,60,4.000000,18.000000,373225.031250,100.000000,1.000000
440402.74999573,4464082.81999390,4.57999992,0,195,59,4.000000,2.000000,373225.125000,100.000000,1.000000
440402.63999512,4464082.36000244,4.48000002,0,192,62,4.000000,2.000000,373225.125000,100.000000,1.000000
440402.56999542,4464081.58000366,4.65999985,0,199,55,4.000000,2.000000,373225.125000,100.000000,1.000000
440404.47999146,4464080.95999329,4.48999977,0,192,62,4.000000,20.000000,373225.125000,63.000000,1.000000
440402.57999756,4464081.27000610,4.94000006,0,211,43,4.000000,2.000000,373225.125000,100.000000,1.000000
440402.67999603,4464081.25999634,5.40000010,0,231,23,4.000000,18.000000,373225.125000,100.000000,1.000000
440402.78999664,4464081.17000000,6.03000021,3,255,0,4.000000,2.000000,373225.125000,100.000000,1.000000
440402.43999817,4464080.28000061,5.01000023,0,214,40,4.000000,18.000000,373225.125000,100.000000,1.000000
440402.25999786,4464079.72999756,4.69999981,0,201,53,4.000000,18.000000,373225.125000,100.000000,1.000000
440402.22999146,4464079.50000183,4.73999977,0,203,51,4.000000,2.000000,373225.125000,100.000000,1.000000
440402.28999664,4464079.22999756,5.17999983,0,222,32,4.000000,2.000000,373225.125000,100.000000,1.000000
440402.93999817,4464081.17999451,5.00000000,0,214,40,4.000000,18.000000,373225.218750,100.000000,1.000000
440403.08999207,4464080.80999939,5.82999992,0,249,5,4.000000,2.000000,373225.218750,100.000000,1.000000
440402.99999573,4464080.58000366,5.69000006,0,243,11,4.000000,18.000000,373225.218750,100.000000,1.000000
440402.73999359,4464079.92000000,4.82999992,0,207,47,4.000000,18.000000,373225.218750,100.000000,1.000000
440402.66999390,4464079.64000122,4.76999998,0,204,50,4.000000,2.000000,373225.218750,100.000000,1.000000
440401.10999634,4464081.28999512,4.65999985,0,199,55,4.000000,0.000000,373225.312500,63.000000,1.000000
440403.16999390,4464080.95999329,4.65000010,0,198,56,4.000000,2.000000,373225.312500,100.000000,1.000000
440401.35999634,4464081.19999878,5.53000021,0,237,17,4.000000,0.000000,373225.312500,62.000000,1.000000
440403.18999817,4464080.64999573,4.94000006,0,211,43,4.000000,2.000000,373225.312500,100.000000,1.000000
440401.25999786,4464080.95999329,5.23999977,0,224,30,4.000000,16.000000,373225.312500,63.000000,1.000000
440401.35999634,4464080.86000244,5.67999983,0,243,11,4.000000,0.000000,373225.312500,61.000000,1.000000
440403.04999115,4464080.09999268,4.71999979,0,201,53,4.000000,2.000000,373225.312500,100.000000,1.000000
440403.04999115,4464079.97000305,4.84000015,0,207,47,4.000000,18.000000,373225.312500,100.000000,1.000000
440400.89999725,4464080.03999512,4.67999983,0,200,54,4.000000,0.000000,373225.312500,63.000000,1.000000
440400.90999176,4464079.91000549,4.84999990,0,207,47,4.000000,16.000000,373225.312500,63.000000,1.000000
440402.15999176,4464082.33000366,4.88999987,0,209,45,4.000000,0.000000,373225.406250,63.000000,1.000000
440402.22999146,4464082.05999939,5.36999989,0,230,24,4.000000,0.000000,373225.406250,100.000000,1.000000
440402.17999603,4464081.86000244,5.26999998,0,225,29,4.000000,16.000000,373225.406250,62.000000,1.000000
440402.18999817,4464081.33999817,5.69999981,0,244,10,4.000000,0.000000,373225.406250,61.000000,1.000000
440401.97999146,4464080.78000061,5.28000021,0,226,28,4.000000,0.000000,373225.406250,63.000000,1.000000
440401.61999084,4464079.70999329,4.61000013,0,197,57,4.000000,0.000000,373225.406250,63.000000,1.000000
440401.55999329,4464079.50999634,4.53999996,0,194,60,4.000000,16.000000,373225.406250,63.000000,1.000000
440401.57999756,4464079.33000366,4.76999998,0,204,50,4.000000,0.000000,373225.406250,63.000000,1.000000
440401.42999603,4464078.83000366,4.63999987,0,198,56,4.000000,0.000000,373225.406250,63.000000,1.000000
440402.77999451,4464082.97000305,4.48999977,0,192,62,4.000000,16.000000,373225.531250,63.000000,1.000000
440402.73999359,4464082.55999939,4.57000017,0,195,59,4.000000,16.000000,373225.531250,63.000000,1.000000
440402.66999390,4464081.27000610,5.21999979,0,223,31,4.000000,0.000000,373225.531250,63.000000,1.000000
440402.83999207,4464081.11999695,6.15000010,8,255,0,4.000000,0.000000,373225.531250,60.000000,1.000000
440402.46999695,4464080.24000732,5.19000006,0,222,32,4.000000,16.000000,373225.531250,63.000000,1.000000
440402.25999786,4464079.69000427,4.80999994,0,206,48,4.000000,16.000000,373225.531250,63.000000,1.000000
440402.21999695,4464079.44000427,4.82999992,0,207,47,4.000000,0.000000,373225.531250,63.000000,1.000000
440402.25999786,4464079.34999268,5.05999994,0,216,38,4.000000,16.000000,373225.531250,63.000000,1.000000
440402.24999573,4464079.14000122,5.19000006,0,222,32,4.000000,0.000000,373225.531250,63.000000,1.000000
440403.10999634,4464082.30000488,4.51999998,0,193,61,4.000000,0.000000,373225.625000,63.000000,1.000000
440403.06999542,4464081.44000427,4.98000002,0,213,41,4.000000,16.000000,373225.625000,63.000000,1.000000
440403.06999542,4464081.24000732,5.11999989,0,219,35,4.000000,0.000000,373225.625000,63.000000,1.000000
440403.30999329,4464081.34999268,5.86999989,0,251,3,4.000000,16.000000,373225.625000,61.000000,1.000000
440403.26999237,4464081.09999268,5.92000008,0,253,1,4.000000,0.000000,373225.625000,61.000000,1.000000
440403.20999481,4464080.89999573,5.80000019,0,248,6,4.000000,16.000000,373225.625000,62.000000,1.000000
440403.19999268,4464080.83999817,5.13999987,0,220,34,4.000000,0.000000,373225.718750,63.000000,1.000000
440403.14999725,4464080.44999878,5.23999977,0,224,30,4.000000,0.000000,373225.718750,63.000000,1.000000
440402.93999817,4464080.08999817,4.75000000,0,203,51,4.000000,16.000000,373225.718750,63.000000,1.000000
440402.82999756,4464079.75999634,4.61999989,0,198,56,4.000000,0.000000,373225.718750,63.000000,1.000000
440403.39999725,4464081.20999329,5.53000021,0,237,17,4.000000,16.000000,373225.812500,63.000000,1.000000
440403.15999176,4464080.77000610,5.01000023,0,214,40,4.000000,0.000000,373225.812500,63.000000,1.000000
440402.94999268,4464080.06999390,4.78999996,0,204,50,4.000000,16.000000,373225.812500,63.000000,1.000000
440402.98999359,4464079.89999573,5.01000023,0,214,40,4.000000,0.000000,373225.812500,63.000000,1.000000
440403.44999268,4464081.44000427,4.57000017,0,195,59,4.000000,0.000000,373225.906250,63.000000,1.000000
440403.37999298,4464081.03000061,4.63000011,0,198,56,4.000000,0.000000,373225.906250,63.000000,1.000000
440403.64999725,4464081.16000549,5.44000006,0,233,21,4.000000,16.000000,373225.906250,63.000000,1.000000
440403.51999237,4464080.69000427,5.32000017,0,228,26,4.000000,16.000000,373225.906250,63.000000,1.000000
440403.45999481,4464080.42000000,5.28000021,0,226,28,4.000000,0.000000,373225.906250,63.000000,1.000000
440403.30999329,4464080.13000671,5.00000000,0,214,40,4.000000,16.000000,373225.906250,63.000000,1.000000
440403.33999207,4464079.94999878,5.19999981,0,222,32,4.000000,0.000000,373225.906250,63.000000,1.000000
440404.61999084,4464080.09999268,4.69999981,0,201,53,5.000000,31.000000,373308.781250,63.000000,1.000000
440404.53999664,4464080.78000061,5.25000000,0,225,29,5.000000,31.000000,373308.781250,63.000000,1.000000
440404.53999664,4464081.05999939,5.51999998,0,236,18,5.000000,31.000000,373308.781250,63.000000,1.000000
440404.55999329,4464079.97000305,4.51999998,0,193,61,5.000000,31.000000,373308.875000,63.000000,1.000000
440404.55999329,4464080.16000549,4.73000002,0,202,52,5.000000,15.000000,373308.875000,63.000000,1.000000
440404.45999481,4464081.14000122,5.51999998,0,236,18,5.000000,15.000000,373308.875000,63.000000,1.000000
440404.22999146,4464080.22000305,4.55999994,0,195,59,5.000000,31.000000,373308.968750,63.000000,1.000000
440404.33999207,4464080.16000549,5.19999981,0,222,32,5.000000,15.000000,373308.968750,63.000000,1.000000
440404.13999512,4464081.08999817,5.21000004,0,223,31,5.000000,15.000000,373308.968750,63.000000,1.000000
440404.16999390,4464081.42000000,5.86999989,0,251,3,5.000000,31.000000,373308.968750,63.000000,1.000000
440403.62999298,4464082.88000671,4.57000017,0,195,59,5.000000,15.000000,373308.968750,63.000000,1.000000
440403.58999207,4464083.03000061,4.63999987,0,198,56,5.000000,31.000000,373308.968750,63.000000,1.000000
440403.96999695,4464079.52000610,4.55000019,0,195,59,5.000000,31.000000,373309.062500,63.000000,1.000000
440403.90999176,4464079.89999573,4.76999998,0,204,50,5.000000,31.000000,373309.062500,63.000000,1.000000
440403.82999756,4464080.45999329,5.17999983,0,222,32,5.000000,15.000000,373309.062500,63.000000,1.000000
440403.87999298,4464080.47999756,5.50000000,0,235,19,5.000000,31.000000,373309.062500,63.000000,1.000000
440403.86999084,4464080.75000183,5.86999989,0,251,3,5.000000,31.000000,373309.062500,63.000000,1.000000
440403.86999084,4464080.92999451,6.07999992,5,255,0,5.000000,15.000000,373309.062500,63.000000,1.000000
440403.79999115,4464081.33000366,6.15000010,8,255,0,5.000000,15.000000,373309.062500,63.000000,1.000000
440403.58999207,4464081.97000305,5.69000006,0,243,11,5.000000,15.000000,373309.062500,63.000000,1.000000
440403.52999451,4464082.19000427,5.69999981,0,244,10,5.000000,31.000000,373309.062500,63.000000,1.000000
440403.21999695,4464082.94999878,4.94999981,0,212,42,5.000000,15.000000,373309.062500,63.000000,1.000000
440403.51999237,4464078.89999573,4.55000019,0,195,59,5.000000,15.000000,373309.187500,63.000000,1.000000
440403.40999176,4464079.77000610,5.07000017,0,217,37,5.000000,31.000000,373309.187500,63.000000,1.000000
440403.29999115,4464080.22999756,5.13000011,0,219,35,5.000000,31.000000,373309.187500,63.000000,1.000000
440403.31999542,4464080.36000244,5.44000006,0,233,21,5.000000,15.000000,373309.187500,63.000000,1.000000
440403.01999237,4464081.19999878,4.84000015,0,207,47,5.000000,15.000000,373309.187500,63.000000,1.000000
440403.19999268,4464080.97000305,5.57000017,0,238,16,5.000000,31.000000,373309.187500,63.000000,1.000000
440402.91999390,4464082.03999512,5.53999996,0,237,17,5.000000,31.000000,373309.187500,63.000000,1.000000
440403.08999207,4464079.42999451,5.30000019,0,227,27,5.000000,31.000000,373309.281250,63.000000,1.000000
440402.95999481,4464079.83000366,5.07999992,0,217,37,5.000000,15.000000,373309.281250,63.000000,1.000000
440404.84999420,4464081.09999268,4.57000017,0,195,59,5.000000,13.000000,373309.281250,59.000000,1.000000
440404.83999207,4464081.24000732,4.67999983,0,200,54,5.000000,29.000000,373309.281250,59.000000,1.000000
440402.79999115,4464080.64999573,5.36000013,0,229,25,5.000000,15.000000,373309.281250,63.000000,1.000000
440402.51999237,4464081.84999268,5.17000008,0,221,33,5.000000,31.000000,373309.281250,63.000000,1.000000
440404.47999146,4464079.97999756,4.57000017,0,195,59,5.000000,29.000000,373309.375000,60.000000,1.000000
440402.39999725,4464079.36000244,4.65000010,0,198,56,5.000000,31.000000,373309.375000,63.000000,1.000000
440402.45999481,4464079.53000061,5.23000002,0,224,30,5.000000,31.000000,373309.375000,63.000000,1.000000
440404.42999603,4464080.49000732,5.11999989,0,219,35,5.000000,13.000000,373309.375000,60.000000,1.000000
440402.35999634,4464079.89000122,5.09000015,0,218,36,5.000000,15.000000,373309.375000,63.000000,1.000000
440404.47999146,4464080.47999756,5.48000002,0,234,20,5.000000,29.000000,373309.375000,60.000000,1.000000
440404.39999725,4464080.92999451,5.57000017,0,238,16,5.000000,29.000000,373309.375000,60.000000,1.000000
440404.35999634,4464081.25999634,5.76000023,0,246,8,5.000000,29.000000,373309.375000,60.000000,1.000000
440402.26999237,4464080.69999878,5.78999996,0,248,6,5.000000,31.000000,373309.375000,63.000000,1.000000
440403.94999268,4464082.44000427,4.51000023,0,192,62,5.000000,29.000000,373309.375000,58.000000,1.000000
440401.91999390,4464078.74000732,4.53000021,0,194,60,5.000000,31.000000,373309.468750,63.000000,1.000000
440404.02999451,4464079.47999756,4.69999981,0,201,53,5.000000,13.000000,373309.468750,60.000000,1.000000
440403.95999481,4464079.89000122,4.80999994,0,206,48,5.000000,13.000000,373309.468750,120.000000,1.000000
440403.92999603,4464080.02000610,4.96000004,0,212,42,5.000000,29.000000,373309.468750,60.000000,1.000000
440403.96999695,4464080.09999268,5.34000015,0,228,26,5.000000,13.000000,373309.468750,60.000000,1.000000
440403.87999298,4464080.39999573,5.15999985,0,221,33,5.000000,29.000000,373309.468750,60.000000,1.000000
440403.86999084,4464080.83999817,5.78999996,0,248,6,5.000000,13.000000,373309.468750,60.000000,1.000000
440403.90999176,4464080.86999695,6.07999992,5,255,0,5.000000,29.000000,373309.468750,60.000000,1.000000
440401.43999817,4464081.02000610,4.63000011,0,198,56,5.000000,31.000000,373309.468750,63.000000,1.000000
440403.80999329,4464081.50000183,6.25000000,12,255,0,5.000000,13.000000,373309.468750,60.000000,1.000000
440401.26999237,4464081.78000061,4.69999981,0,201,53,5.000000,15.000000,373309.468750,63.000000,1.000000
440403.49999573,4464082.39999573,5.38999987,0,231,23,5.000000,13.000000,373309.468750,59.000000,1.000000
440403.43999817,4464079.78999512,5.03000021,0,215,39,5.000000,13.000000,373309.562500,60.000000,1.000000
440403.41999390,4464080.08000366,5.40000010,0,231,23,5.000000,13.000000,373309.562500,60.000000,1.000000
440403.37999298,4464080.27000610,5.40000010,0,231,23,5.000000,29.000000,373309.562500,60.000000,1.000000
440403.34999420,4464080.47999756,5.53000021,0,237,17,5.000000,13.000000,373309.562500,60.000000,1.000000
440403.10999634,4464081.14000122,4.76999998,0,204,50,5.000000,29.000000,373309.562500,59.000000,1.000000
440403.14999725,4464081.22000305,5.15999985,0,221,33,5.000000,13.000000,373309.562500,60.000000,1.000000
440403.23999359,4464081.27000610,5.88999987,0,252,2,5.000000,13.000000,373309.562500,60.000000,1.000000
440402.99999573,4464082.05999939,5.44999981,0,233,21,5.000000,13.000000,373309.562500,59.000000,1.000000
440402.99999573,4464082.14999573,5.61999989,0,240,14,5.000000,29.000000,373309.562500,60.000000,1.000000
440402.97999146,4464082.34999268,5.78999996,0,248,6,5.000000,13.000000,373309.562500,60.000000,1.000000
440402.87999298,4464078.77000610,4.48999977,0,192,62,5.000000,13.000000,373309.687500,120.000000,1.000000
440402.73999359,4464079.86999695,4.88000011,0,209,45,5.000000,13.000000,373309.687500,60.000000,1.000000
440402.61999084,4464080.50999634,4.98999977,0,213,41,5.000000,29.000000,373309.687500,60.000000,1.000000
440404.62999298,4464081.49000732,4.78999996,0,204,50,5.000000,11.000000,373309.687500,63.000000,1.000000
440402.60999634,4464080.69999878,5.21999979,0,223,31,5.000000,13.000000,373309.687500,60.000000,1.000000
440404.57999756,4464081.69000427,4.78000021,0,204,50,5.000000,27.000000,373309.687500,63.000000,1.000000
440402.49999573,4464081.05999939,5.01999998,0,215,39,5.000000,29.000000,373309.687500,60.000000,1.000000
440402.54999115,4464081.09999268,5.40999985,0,231,23,5.000000,13.000000,373309.687500,120.000000,1.000000
440402.53999664,4464081.24000732,5.51999998,0,236,18,5.000000,29.000000,373309.687500,60.000000,1.000000
440402.45999481,4464081.55999939,5.50000000,0,235,19,5.000000,13.000000,373309.687500,60.000000,1.000000
440404.53999664,4464079.81999390,4.55999994,0,195,59,5.000000,11.000000,373309.781250,63.000000,1.000000
440402.46999695,4464079.33000366,4.78999996,0,204,50,5.000000,29.000000,373309.781250,61.000000,1.000000
440404.46999695,4464080.22000305,4.71000004,0,201,53,5.000000,11.000000,373309.781250,63.000000,1.000000
440402.40999176,4464079.61000244,4.78000021,0,204,50,5.000000,13.000000,373309.781250,60.000000,1.000000
440402.45999481,4464079.61000244,5.13999987,0,220,34,5.000000,29.000000,373309.781250,61.000000,1.000000
440404.46999695,4464080.47000305,5.17000008,0,221,33,5.000000,11.000000,373309.781250,63.000000,1.000000
440402.38999512,4464079.89999573,5.13000011,0,219,35,5.000000,13.000000,373309.781250,61.000000,1.000000
440402.18999817,4464080.44000427,4.55999994,0,195,59,5.000000,29.000000,373309.781250,60.000000,1.000000
440402.18999817,4464080.59999268,4.78999996,0,204,50,5.000000,13.000000,373309.781250,60.000000,1.000000
440404.43999817,4464080.92999451,5.59000015,0,239,15,5.000000,27.000000,373309.781250,63.000000,1.000000
440404.41999390,4464081.11999695,5.67999983,0,243,11,5.000000,11.000000,373309.781250,63.000000,1.000000
440404.04999115,4464082.45999329,4.46999979,0,191,63,5.000000,27.000000,373309.781250,63.000000,1.000000
440402.32999756,4464078.86999695,4.71000004,0,201,53,5.000000,13.000000,373309.875000,61.000000,1.000000
440402.31999542,4464079.00000183,4.73999977,0,203,51,5.000000,29.000000,373309.875000,61.000000,1.000000
440402.28999664,4464079.33000366,5.01000023,0,214,40,5.000000,29.000000,373309.875000,61.000000,1.000000
440404.32999756,4464080.11999695,5.15000010,0,220,34,5.000000,11.000000,373309.875000,63.000000,1.000000
440402.20999481,4464079.75000183,5.11000013,0,219,35,5.000000,29.000000,373309.875000,61.000000,1.000000
440404.15999176,4464080.88000671,4.61999989,0,198,56,5.000000,11.000000,373309.875000,63.000000,1.000000
440402.10999634,4464080.13000671,4.94999981,0,212,42,5.000000,13.000000,373309.875000,60.000000,1.000000
440404.25999786,4464080.64999573,5.40000010,0,231,23,5.000000,27.000000,373309.875000,63.000000,1.000000
440401.98999359,4464080.92999451,5.28999996,0,226,28,5.000000,13.000000,373309.875000,60.000000,1.000000
440401.94999268,4464081.28999512,5.57999992,0,239,15,5.000000,13.000000,373309.875000,60.000000,1.000000
440403.76999237,4464082.95999329,4.63999987,0,198,56,5.000000,27.000000,373309.875000,63.000000,1.000000
440401.94999268,4464078.80000488,4.59000015,0,196,58,5.000000,29.000000,373309.968750,61.000000,1.000000
440403.97999146,4464079.69999878,4.78000021,0,204,50,5.000000,27.000000,373309.968750,63.000000,1.000000
440401.94999268,4464079.06999390,4.90000010,0,210,44,5.000000,29.000000,373309.968750,61.000000,1.000000
440401.91999390,4464079.28999512,5.01000023,0,214,40,5.000000,13.000000,373309.968750,61.000000,1.000000
440401.95999481,4464079.30999939,5.32000017,0,228,26,5.000000,29.000000,373309.968750,61.000000,1.000000
440401.74999573,4464079.92000000,4.61000013,0,197,57,5.000000,13.000000,373309.968750,60.000000,1.000000
440403.87999298,4464080.49000732,5.13999987,0,220,34,5.000000,27.000000,373309.968750,63.000000,1.000000
440401.72999146,4464080.03999512,4.69000006,0,201,53,5.000000,29.000000,373309.968750,60.000000,1.000000
440403.92999603,4464080.50999634,5.63000011,0,241,13,5.000000,11.000000,373309.968750,63.000000,1.000000
440403.92999603,4464080.61999695,5.78000021,0,247,7,5.000000,27.000000,373309.968750,63.000000,1.000000
440401.67999603,4464080.44999878,4.84999990,0,207,47,5.000000,29.000000,373309.968750,60.000000,1.000000
440403.90999176,4464080.91000549,6.13999987,8,255,0,5.000000,27.000000,373309.968750,63.000000,1.000000
440401.50999786,4464081.08999817,4.69000006,0,201,53,5.000000,29.000000,373309.968750,60.000000,1.000000
440403.82999756,4464081.28999512,5.92000008,0,253,1,5.000000,11.000000,373309.968750,63.000000,1.000000
440403.82999756,4464081.53999512,6.28999996,14,255,0,5.000000,11.000000,373309.968750,63.000000,1.000000
440401.31999542,4464081.94000427,4.55000019,0,195,59,5.000000,13.000000,373309.968750,59.000000,1.000000
440401.26999237,4464082.14999573,4.53999996,0,194,60,5.000000,29.000000,373309.968750,59.000000,1.000000
440403.58999207,4464079.83999817,5.03999996,0,216,38,5.000000,11.000000,373310.062500,63.000000,1.000000
440401.43999817,4464079.49000732,4.82999992,0,207,47,5.000000,13.000000,373310.062500,61.000000,1.000000
440401.33999207,4464079.78000061,4.63999987,0,198,56,5.000000,29.000000,373310.062500,60.000000,1.000000
440403.35999634,4464080.95999329,4.82999992,0,207,47,5.000000,11.000000,373310.062500,63.000000,1.000000
440401.19999268,4464080.53999512,4.65000010,0,198,56,5.000000,13.000000,373310.062500,60.000000,1.000000
440403.38999512,4464080.97000305,5.15999985,0,221,33,5.000000,27.000000,373310.062500,63.000000,1.000000
440403.36999084,4464081.17000000,5.34000015,0,228,26,5.000000,11.000000,373310.062500,63.000000,1.000000
440403.40999176,4464081.33000366,5.96000004,0,255,0,5.000000,11.000000,373310.062500,63.000000,1.000000
440403.15999176,4464082.33999817,5.44999981,0,233,21,5.000000,27.000000,373310.062500,63.000000,1.000000
440403.30999329,4464078.86999695,4.46000004,0,191,63,5.000000,11.000000,373310.187500,63.000000,1.000000
440403.27999451,4464079.44999878,5.19999981,0,222,32,5.000000,11.000000,373310.187500,63.000000,1.000000
440403.22999146,4464079.67000000,5.13999987,0,220,34,5.000000,27.000000,373310.187500,63.000000,1.000000
440403.13999512,4464080.13000671,5.17999983,0,222,32,5.000000,27.000000,373310.187500,63.000000,1.000000
440403.11999084,4464080.33000366,5.34000015,0,228,26,5.000000,11.000000,373310.187500,63.000000,1.000000
440402.96999695,4464081.08000366,5.26999998,0,225,29,5.000000,27.000000,373310.187500,63.000000,1.000000
440402.96999695,4464081.33999817,5.67999983,0,243,11,5.000000,27.000000,373310.187500,63.000000,1.000000
440402.79999115,4464082.02000610,5.38999987,0,231,23,5.000000,27.000000,373310.187500,63.000000,1.000000
440402.77999451,4464082.17999451,5.38999987,0,231,23,5.000000,11.000000,373310.187500,63.000000,1.000000
440402.75999786,4464082.33000366,5.48000002,0,234,20,5.000000,27.000000,373310.187500,63.000000,1.000000
440404.63999512,4464079.99000732,4.65999985,0,199,55,5.000000,25.000000,373310.281250,63.000000,1.000000
440402.41999390,4464079.97999756,4.51999998,0,193,61,5.000000,27.000000,373310.281250,63.000000,1.000000
440402.47999146,4464080.00000183,5.07000017,0,217,37,5.000000,11.000000,373310.281250,63.000000,1.000000
440402.35999634,4464080.55999939,4.88999987,0,209,45,5.000000,11.000000,373310.281250,63.000000,1.000000
440404.53999664,4464080.94000427,5.61999989,0,240,14,5.000000,25.000000,373310.281250,63.000000,1.000000
440404.51999237,4464081.14999573,5.69000006,0,243,11,5.000000,9.000000,373310.281250,63.000000,1.000000
440402.38999512,4464080.70999329,5.50000000,0,235,19,5.000000,11.000000,373310.281250,63.000000,1.000000
440403.68999817,4464079.38000671,4.55999994,0,195,59,5.000000,9.000000,373310.375000,63.000000,1.000000
440401.55999329,4464079.25000183,4.90000010,0,210,44,5.000000,11.000000,373310.375000,63.000000,1.000000
440403.54999115,4464080.22999756,4.80000019,0,205,49,5.000000,9.000000,373310.375000,63.000000,1.000000
440403.53999664,4464080.36999695,4.88999987,0,209,45,5.000000,25.000000,373310.375000,63.000000,1.000000
440401.30999329,4464080.33999817,4.57000017,0,195,59,5.000000,11.000000,373310.375000,63.000000,1.000000
440403.51999237,4464080.67999451,5.21999979,0,223,31,5.000000,25.000000,373310.375000,63.000000,1.000000
440403.48999359,4464081.25999634,5.96999979,0,255,0,5.000000,25.000000,373310.375000,63.000000,1.000000
440403.42999603,4464081.55999939,5.92000008,0,253,1,5.000000,9.000000,373310.375000,63.000000,1.000000
440403.09999420,4464082.89000122,4.92999983,0,211,43,5.000000,25.000000,373310.375000,63.000000,1.000000
440402.85999634,4464078.81999390,4.50000000,0,192,62,5.000000,25.000000,373310.468750,63.000000,1.000000
440402.83999207,4464079.31999390,5.05999994,0,216,38,5.000000,9.000000,373310.468750,63.000000,1.000000
440402.82999756,4464079.44000427,5.19999981,0,222,32,5.000000,25.000000,373310.468750,63.000000,1.000000
440402.78999664,4464079.70999329,5.23999977,0,224,30,5.000000,9.000000,373310.468750,63.000000,1.000000
