//X,Y,Z,R,G,B,Point Source ID,User Data,Time,Intensity,Classification
440406.52999451,4464000.42000000,6.09999990,6,255,0,6.000000,3.000000,373349.093750,0.000000,1.000000
440407.98999359,4464000.22999756,5.92000008,0,253,1,6.000000,5.000000,373349.093750,1.000000,1.000000
440406.50999786,4464000.29999725,6.34000015,16,255,0,6.000000,19.000000,373349.093750,1.000000,1.000000
440406.48999359,4464000.11999695,6.42000008,20,255,0,6.000000,3.000000,373349.093750,1.000000,1.000000
440407.94999268,4463999.93000214,5.71000004,0,244,10,6.000000,5.000000,373349.093750,1.000000,1.000000
440407.93999817,4463999.82000153,5.67999983,0,243,11,6.000000,21.000000,373349.093750,0.000000,1.000000
440407.94999268,4463999.62999908,4.69000006,0,201,53,6.000000,5.000000,373349.093750,1.000000,1.000000
440406.43999817,4463999.71000092,5.51999998,0,236,18,6.000000,19.000000,373349.093750,0.000000,1.000000
440403.45999481,4463999.98999969,6.17000008,9,255,0,6.000000,30.000000,373349.093750,0.000000,1.000000
440406.41999390,4463999.54000275,5.61000013,0,240,14,6.000000,3.000000,373349.093750,0.000000,1.000000
440403.40999176,4463999.79999725,5.76999998,0,247,7,6.000000,14.000000,373349.093750,0.000000,1.000000
440406.40999176,4463999.43999664,6.63999987,29,255,0,6.000000,19.000000,373349.093750,1.000000,1.000000
440407.86999084,4463999.23999969,5.82000017,0,249,5,6.000000,21.000000,373349.093750,1.000000,1.000000
440406.39999725,4463999.23999969,5.96000004,0,255,0,6.000000,3.000000,373349.093750,0.000000,1.000000
440407.84999420,4463999.08000366,5.98999977,1,255,0,6.000000,5.000000,373349.093750,1.000000,1.000000
440407.83999207,4463998.96000092,5.67999983,0,243,11,6.000000,21.000000,373349.093750,0.000000,1.000000
440407.78999664,4463998.68999664,6.07999992,5,255,0,6.000000,21.000000,373349.093750,1.000000,1.000000
440407.78999664,4463998.48999969,5.59000015,0,239,15,6.000000,5.000000,373349.093750,1.000000,1.000000
440407.77999451,4463998.36999695,5.92000008,0,253,1,6.000000,21.000000,373349.093750,1.000000,1.000000
440407.70999481,4463997.96000092,6.09999990,6,255,0,6.000000,5.000000,373349.093750,0.000000,1.000000
440407.68999817,4463997.83999817,6.11999989,7,255,0,6.000000,21.000000,373349.093750,1.000000,1.000000
440403.26999237,4463997.96000092,6.61999989,29,255,0,6.000000,30.000000,373349.093750,0.000000,1.000000
440406.17999603,4463997.46000092,6.63999987,29,255,0,6.000000,19.000000,373349.093750,1.000000,1.000000
440409.08999207,4463997.04999725,5.44999981,0,233,21,6.000000,23.000000,373349.093750,0.000000,1.000000
440407.61999084,4463997.07000153,5.88000011,0,252,2,6.000000,5.000000,373349.093750,1.000000,1.000000
440404.64999725,4463997.23999969,5.73999977,0,246,8,6.000000,17.000000,373349.093750,1.000000,1.000000
440406.14999725,4463997.15999786,6.59999990,27,255,0,6.000000,19.000000,373349.093750,1.000000,1.000000
440407.57999756,4463996.80999939,5.92000008,0,253,1,6.000000,5.000000,373349.093750,1.000000,1.000000
440406.10999634,4463996.78000061,4.98999977,0,213,41,6.000000,19.000000,373349.093750,0.000000,1.000000
440407.50999786,4463996.00999634,5.03000021,0,215,39,6.000000,21.000000,373349.093750,1.000000,1.000000
440407.48999359,4463995.87999908,5.03999996,0,216,38,6.000000,5.000000,373349.093750,1.000000,1.000000
440407.46999695,4463995.75999634,5.03999996,0,216,38,6.000000,21.000000,373349.093750,1.000000,1.000000
440406.06999542,4464003.36000244,5.48999977,0,235,19,6.000000,17.000000,373349.187500,0.000000,1.000000
440406.07999756,4464003.11999695,6.57000017,26,255,0,6.000000,1.000000,373349.187500,1.000000,1.000000
440406.06999542,4464003.00999634,6.34999990,17,255,0,6.000000,17.000000,373349.187500,1.000000,1.000000
440406.03999664,4464002.83000366,6.21999979,11,255,0,6.000000,1.000000,373349.187500,1.000000,1.000000
440407.52999451,4464002.64000122,5.55000019,0,237,17,6.000000,3.000000,373349.187500,1.000000,1.000000
440406.02999451,4464002.69999878,6.32999992,16,255,0,6.000000,17.000000,373349.187500,1.000000,1.000000
440407.51999237,4464002.53000061,5.46000004,0,234,20,6.000000,19.000000,373349.187500,0.000000,1.000000
440406.00999786,4464002.53000061,6.30000019,14,255,0,6.000000,1.000000,373349.187500,1.000000,1.000000
440405.96999695,4464002.42000000,5.96000004,0,255,0,6.000000,17.000000,373349.187500,1.000000,1.000000
440405.97999146,4464002.22000305,6.61000013,28,255,0,6.000000,1.000000,373349.187500,1.000000,1.000000
440407.44999268,4464002.04999725,5.53000021,0,237,17,6.000000,3.000000,373349.187500,0.000000,1.000000
440404.44999268,4464002.33999817,6.63999987,29,255,0,6.000000,14.000000,373349.187500,1.000000,1.000000
440407.43999817,4464001.92000000,5.44000006,0,233,21,6.000000,19.000000,373349.187500,0.000000,1.000000
440408.73999359,4464000.35000031,6.03999996,3,255,0,6.000000,5.000000,373349.187500,1.000000,1.000000
440405.78999664,4464000.61999695,6.28999996,14,255,0,6.000000,17.000000,373349.187500,0.000000,1.000000
440408.72999146,4464000.22999756,5.92000008,0,253,1,6.000000,21.000000,373349.187500,1.000000,1.000000
440407.23999359,4464000.25999634,6.57000017,26,255,0,6.000000,3.000000,373349.187500,0.000000,1.000000
440408.71999695,4463999.94999878,5.11000013,0,219,35,6.000000,21.000000,373349.187500,0.000000,1.000000
440404.25999786,4464000.42000000,6.32000017,15,255,0,6.000000,30.000000,373349.187500,0.000000,1.000000
440405.70999481,4463999.86999695,6.57000017,26,255,0,6.000000,1.000000,373349.187500,1.000000,1.000000
440405.69999268,4463999.75000183,6.57000017,26,255,0,6.000000,17.000000,373349.187500,1.000000,1.000000
440405.66999390,4463999.58000366,6.46999979,22,255,0,6.000000,1.000000,373349.187500,1.000000,1.000000
440407.06999542,4463998.80999939,6.19999981,10,255,0,6.000000,3.000000,373349.187500,1.000000,1.000000
440405.52999451,4463998.82000153,4.80000019,0,205,49,6.000000,17.000000,373349.187500,0.000000,1.000000
440408.51999237,4463998.48999969,5.40999985,0,231,23,6.000000,21.000000,373349.187500,1.000000,1.000000
440408.49999573,4463998.30999939,5.38000011,0,230,24,6.000000,5.000000,373349.187500,0.000000,1.000000
440408.48999359,4463998.18999664,5.28999996,0,226,28,6.000000,21.000000,373349.187500,0.000000,1.000000
440406.99999573,4463998.25000183,6.55000019,26,255,0,6.000000,3.000000,373349.187500,1.000000,1.000000
440408.47999146,4463998.00999634,5.19999981,0,222,32,6.000000,5.000000,373349.187500,1.000000,1.000000
440406.98999359,4463998.11999695,6.30999994,15,255,0,6.000000,19.000000,373349.187500,1.000000,1.000000
440408.40999176,4463997.80999939,6.05000019,4,255,0,6.000000,5.000000,373349.187500,0.000000,1.000000
440408.37999298,4463997.48999969,5.63000011,0,241,13,6.000000,5.000000,373349.187500,1.000000,1.000000
440406.91999390,4463997.58000366,6.23999977,12,255,0,6.000000,19.000000,373349.187500,1.000000,1.000000
440408.35999634,4463997.40000336,5.92999983,0,254,0,6.000000,21.000000,373349.187500,1.000000,1.000000
440406.90999176,4463997.42000000,6.40999985,19,255,0,6.000000,3.000000,373349.187500,1.000000,1.000000
440406.87999298,4463997.29999725,6.38000011,18,255,0,6.000000,19.000000,373349.187500,1.000000,1.000000
440408.33999207,4463997.11999695,6.13999987,8,255,0,6.000000,21.000000,373349.187500,1.000000,1.000000
440408.31999542,4463996.93999664,5.96999979,0,255,0,6.000000,5.000000,373349.187500,1.000000,1.000000
440408.29999115,4463996.82000153,5.80999994,0,249,5,6.000000,21.000000,373349.187500,1.000000,1.000000
440408.26999237,4463996.26999847,4.86999989,0,208,46,6.000000,5.000000,373349.187500,0.000000,1.000000
440405.30999329,4463996.40999786,6.42999983,20,255,0,6.000000,1.000000,373349.187500,1.000000,1.000000
440406.71999695,4463995.86000244,4.86999989,0,208,46,6.000000,3.000000,373349.187500,0.000000,1.000000
440406.78999664,4464003.11000244,5.78999996,0,248,6,6.000000,17.000000,373349.281250,1.000000,1.000000
440406.75999786,4464002.82000153,6.00000000,2,255,0,6.000000,17.000000,373349.281250,1.000000,1.000000
440406.73999359,4464002.64000122,6.05999994,4,255,0,6.000000,1.000000,373349.281250,1.000000,1.000000
440406.69999268,4464002.33000366,6.03999996,3,255,0,6.000000,1.000000,373349.281250,1.000000,1.000000
440406.65999176,4464001.90000336,6.30999994,15,255,0,6.000000,17.000000,373349.281250,1.000000,1.000000
440405.09999420,4464001.53000061,6.57000017,26,255,0,6.000000,14.000000,373349.281250,0.000000,1.000000
440406.57999756,4464001.12999908,6.61999989,29,255,0,6.000000,1.000000,373349.281250,1.000000,1.000000
440408.04999115,4464000.93000214,5.67000008,0,243,11,6.000000,3.000000,373349.281250,0.000000,1.000000
440406.55999329,4464001.00999634,6.63999987,29,255,0,6.000000,17.000000,373349.281250,1.000000,1.000000
440406.53999664,4464000.83999817,6.15000010,8,255,0,6.000000,1.000000,373349.281250,1.000000,1.000000
440408.00999786,4464000.62999908,6.09999990,6,255,0,6.000000,3.000000,373349.281250,0.000000,1.000000
440407.98999359,4464000.50999634,6.42000008,20,255,0,6.000000,19.000000,373349.281250,0.000000,1.000000
440407.96999695,4464000.35000031,6.51999998,24,255,0,6.000000,3.000000,373349.281250,0.000000,1.000000
440407.95999481,4464000.22999756,5.96999979,0,255,0,6.000000,19.000000,373349.281250,1.000000,1.000000
440407.93999817,4464000.04000275,5.90999985,0,253,1,6.000000,3.000000,373349.281250,1.000000,1.000000
440407.91999390,4463999.93000214,5.61999989,0,240,14,6.000000,19.000000,373349.281250,1.000000,1.000000
440407.90999176,4463999.75000183,4.71000004,0,201,53,6.000000,3.000000,373349.281250,0.000000,1.000000
440406.37999298,4463999.65999786,5.65000010,0,242,12,6.000000,1.000000,373349.281250,1.000000,1.000000
440407.85999634,4463999.47999756,5.92000008,0,253,1,6.000000,3.000000,373349.281250,1.000000,1.000000
440403.42999603,4463999.96000092,6.46000004,21,255,0,6.000000,12.000000,373349.281250,0.000000,1.000000
440407.85999634,4463999.35000031,5.46000004,0,234,20,6.000000,19.000000,373349.281250,1.000000,1.000000
440407.82999756,4463999.18000214,5.96000004,0,255,0,6.000000,3.000000,373349.281250,1.000000,1.000000
440407.81999542,4463999.04999725,5.53999996,0,237,17,6.000000,19.000000,373349.281250,1.000000,1.000000
440403.23999359,4463999.22000305,5.53999996,0,237,17,6.000000,28.000000,373349.281250,0.000000,1.000000
440407.75999786,4463998.61999695,6.34000015,16,255,0,6.000000,3.000000,373349.281250,1.000000,1.000000
440403.20999481,4463999.04000275,5.42999983,0,232,22,6.000000,12.000000,373349.281250,0.000000,1.000000
440407.71999695,4463998.29999725,5.90999985,0,253,1,6.000000,3.000000,373349.281250,1.000000,1.000000
440407.70999481,4463998.17000000,5.57999992,0,239,15,6.000000,19.000000,373349.281250,1.000000,1.000000
440407.64999725,4463997.76999847,6.17000008,9,255,0,6.000000,3.000000,373349.281250,1.000000,1.000000
440406.14999725,4463997.54999725,6.55999994,26,255,0,6.000000,17.000000,373349.281250,1.000000,1.000000
440409.05999329,4463997.15000336,5.48000002,0,234,20,6.000000,21.000000,373349.281250,0.000000,1.000000
440409.04999115,4463996.97999756,4.82999992,0,207,47,6.000000,5.000000,373349.281250,0.000000,1.000000
440404.57999756,4463997.25000183,5.73000002,0,245,9,6.000000,30.000000,373349.281250,1.000000,1.000000
440406.10999634,4463997.10000031,6.59999990,27,255,0,6.000000,1.000000,373349.281250,1.000000,1.000000
440407.55999329,4463996.92000000,6.01999998,2,255,0,6.000000,3.000000,373349.281250,0.000000,1.000000
440409.00999786,4463996.68999664,4.76999998,0,204,50,6.000000,5.000000,373349.281250,1.000000,1.000000
440406.05999329,4463996.89000122,4.92999983,0,211,43,6.000000,17.000000,373349.281250,1.000000,1.000000
440406.08999207,4463996.82000153,6.26000023,13,255,0,6.000000,1.000000,373349.281250,1.000000,1.000000
440407.49999573,4463996.40000336,4.90000010,0,210,44,6.000000,19.000000,373349.281250,0.000000,1.000000
440404.47999146,4463996.37999908,5.86000013,0,251,3,6.000000,30.000000,373349.281250,1.000000,1.000000
440407.44999268,4463996.01999847,5.67999983,0,243,11,6.000000,3.000000,373349.281250,1.000000,1.000000
440405.93999817,4463996.00999634,4.94999981,0,212,42,6.000000,17.000000,373349.281250,1.000000,1.000000
440407.18999817,4464002.28000061,6.23999977,12,255,0,6.000000,17.000000,373349.406250,1.000000,1.000000
440407.14999725,4464002.00000183,5.94000006,0,255,0,6.000000,17.000000,373349.406250,1.000000,1.000000
440407.09999420,4464001.83000366,5.32999992,0,228,26,6.000000,1.000000,373349.406250,1.000000,1.000000
440407.06999542,4464001.40000336,5.65000010,0,242,12,6.000000,17.000000,373349.406250,0.000000,1.000000
440407.04999115,4464001.11000244,6.05000019,4,255,0,6.000000,17.000000,373349.406250,1.000000,1.000000
440407.00999786,4464000.80999939,5.76999998,0,247,7,6.000000,17.000000,373349.406250,1.000000,1.000000
440408.47999146,4464000.60000031,6.61999989,29,255,0,6.000000,19.000000,373349.406250,1.000000,1.000000
440403.98999359,4464001.11999695,6.36999989,17,255,0,6.000000,28.000000,373349.406250,0.000000,1.000000
440408.45999481,4464000.42000000,6.51000023,23,255,0,6.000000,3.000000,373349.406250,1.000000,1.000000
440408.42999603,4464000.14000122,5.67000008,0,243,11,6.000000,3.000000,373349.406250,1.000000,1.000000
440406.94999268,4464000.22999756,6.51999998,24,255,0,6.000000,17.000000,373349.406250,1.000000,1.000000
440406.90999176,4464000.04999725,5.73000002,0,245,9,6.000000,1.000000,373349.406250,1.000000,1.000000
440406.88999512,4463999.93000214,5.53000021,0,237,17,6.000000,17.000000,373349.406250,1.000000,1.000000
440408.36999084,4463999.75000183,6.26999998,13,255,0,6.000000,19.000000,373349.406250,1.000000,1.000000
440406.88999512,4463999.75000183,6.17000008,9,255,0,6.000000,1.000000,373349.406250,1.000000,1.000000
440408.32999756,4463999.43000214,5.71999979,0,245,9,6.000000,19.000000,373349.406250,0.000000,1.000000
440403.81999542,4463999.92000000,5.59000015,0,239,15,6.000000,28.000000,373349.406250,0.000000,1.000000
440403.80999329,4463999.75000183,5.73000002,0,245,9,6.000000,12.000000,373349.406250,0.000000,1.000000
440408.27999451,4463998.97000305,5.42999983,0,232,22,6.000000,3.000000,373349.406250,1.000000,1.000000
440408.26999237,4463998.85000031,5.42999983,0,232,22,6.000000,19.000000,373349.406250,1.000000,1.000000
440408.24999573,4463998.65999786,5.30999994,0,227,27,6.000000,3.000000,373349.406250,1.000000,1.000000
440408.22999146,4463998.54000275,5.21000004,0,223,31,6.000000,19.000000,373349.406250,0.000000,1.000000
440408.20999481,4463998.39000122,5.48999977,0,235,19,6.000000,3.000000,373349.406250,1.000000,1.000000
440406.73999359,4463998.47999756,6.42000008,20,255,0,6.000000,17.000000,373349.406250,1.000000,1.000000
440406.72999146,4463998.33000366,6.67999983,31,255,0,6.000000,1.000000,373349.406250,1.000000,1.000000
440408.12999298,4463997.86000244,5.96000004,0,255,0,6.000000,3.000000,373349.406250,1.000000,1.000000
440408.11999084,4463997.73999969,5.88000011,0,252,2,6.000000,19.000000,373349.406250,1.000000,1.000000
440408.09999420,4463997.54000275,5.48000002,0,234,20,6.000000,3.000000,373349.406250,1.000000,1.000000
440406.61999084,4463997.47000305,6.67000008,30,255,0,6.000000,1.000000,373349.406250,1.000000,1.000000
440406.53999664,4463997.21000092,4.75000000,0,203,51,6.000000,17.000000,373349.406250,0.000000,1.000000
440406.50999786,4463997.01999847,4.63999987,0,198,56,6.000000,1.000000,373349.406250,0.000000,1.000000
440408.03999664,4463997.00000183,6.05999994,4,255,0,6.000000,3.000000,373349.406250,0.000000,1.000000
440406.57999756,4463997.07000153,6.67000008,30,255,0,6.000000,17.000000,373349.406250,1.000000,1.000000
440406.54999115,4463996.90999786,6.21999979,11,255,0,6.000000,1.000000,373349.406250,1.000000,1.000000
440405.06999542,4463996.93999664,6.34000015,16,255,0,6.000000,14.000000,373349.406250,1.000000,1.000000
440406.53999664,4463996.79000275,6.23999977,12,255,0,6.000000,17.000000,373349.406250,1.000000,1.000000
440407.97999146,4463996.58000366,5.63000011,0,241,13,6.000000,19.000000,373349.406250,1.000000,1.000000
440405.00999786,4463996.36999695,6.55000019,26,255,0,6.000000,14.000000,373349.406250,0.000000,1.000000
440406.15999176,4464003.23999969,5.40999985,0,231,23,6.000000,14.000000,373349.500000,0.000000,1.000000
440406.21999695,4464003.04999725,6.36999989,17,255,0,6.000000,30.000000,373349.500000,1.000000,1.000000
440406.17999603,4464002.75000183,6.30000019,14,255,0,6.000000,30.000000,373349.500000,1.000000,1.000000
440406.14999725,4464002.58999817,6.05000019,4,255,0,6.000000,14.000000,373349.500000,0.000000,1.000000
440406.12999298,4464002.47000305,6.07000017,5,255,0,6.000000,30.000000,373349.500000,1.000000,1.000000
440406.14999725,4464002.26999847,6.63000011,29,255,0,6.000000,14.000000,373349.500000,0.000000,1.000000
440407.50999786,4464000.97000305,6.46999979,22,255,0,6.000000,1.000000,373349.500000,1.000000,1.000000
440407.48999359,4464000.85000031,6.36000013,17,255,0,6.000000,17.000000,373349.500000,1.000000,1.000000
440402.91999390,4464001.37999908,6.67000008,30,255,0,6.000000,26.000000,373349.500000,0.000000,1.000000
440407.47999146,4464000.68999664,6.42999983,20,255,0,6.000000,1.000000,373349.500000,1.000000,1.000000
440408.92999603,4464000.50000183,5.63000011,0,241,13,6.000000,3.000000,373349.500000,1.000000,1.000000
440408.91999390,4464000.36999695,5.05999994,0,216,38,6.000000,19.000000,373349.500000,1.000000,1.000000
440405.94999268,4464000.68999664,6.19000006,10,255,0,6.000000,30.000000,373349.500000,1.000000,1.000000
440408.88999512,4464000.18000214,5.05999994,0,216,38,6.000000,3.000000,373349.500000,1.000000,1.000000
440408.87999298,4464000.07000153,5.28000021,0,226,28,6.000000,19.000000,373349.500000,1.000000,1.000000
440405.89999725,4464000.08000366,6.55999994,26,255,0,6.000000,30.000000,373349.500000,0.000000,1.000000
440405.86999084,4463999.79000275,6.40000010,19,255,0,6.000000,30.000000,373349.500000,0.000000,1.000000
440407.25999786,4463998.93999664,6.30000019,14,255,0,6.000000,1.000000,373349.500000,1.000000,1.000000
440402.60999634,4463999.28000061,5.42000008,0,232,22,6.000000,26.000000,373349.500000,0.000000,1.000000
440408.67999603,4463998.44999878,5.46999979,0,234,20,6.000000,3.000000,373349.500000,0.000000,1.000000
440408.65999176,4463998.33000366,5.44000006,0,233,21,6.000000,19.000000,373349.500000,1.000000,1.000000
440408.63999512,4463998.15000336,5.34000015,0,228,26,6.000000,3.000000,373349.500000,1.000000,1.000000
440407.16999390,4463998.25000183,6.15000010,8,255,0,6.000000,17.000000,373349.500000,1.000000,1.000000
440408.54999115,4463997.35000031,6.07999992,5,255,0,6.000000,3.000000,373349.500000,1.000000,1.000000
440407.03999664,4463996.97000305,6.19000006,10,255,0,6.000000,1.000000,373349.500000,1.000000,1.000000
440405.50999786,4463996.72999756,6.55999994,26,255,0,6.000000,14.000000,373349.500000,1.000000,1.000000
440405.42999603,4463996.29999725,6.26999998,13,255,0,6.000000,30.000000,373349.500000,0.000000,1.000000
440406.66999390,4464002.61000244,6.13000011,7,255,0,6.000000,14.000000,373349.593750,1.000000,1.000000
440406.65999176,4464002.47999756,6.17000008,9,255,0,6.000000,30.000000,373349.593750,1.000000,1.000000
440406.63999512,4464002.32000153,6.11999989,7,255,0,6.000000,14.000000,373349.593750,1.000000,1.000000
440405.12999298,4464002.40000336,6.63999987,29,255,0,6.000000,28.000000,373349.593750,0.000000,1.000000
440406.61999084,4464002.00999634,6.50000000,23,255,0,6.000000,14.000000,373349.593750,1.000000,1.000000
440406.59999420,4464001.89000122,6.32000017,15,255,0,6.000000,30.000000,373349.593750,1.000000,1.000000
440408.06999542,4464001.29000275,6.07000017,5,255,0,6.000000,1.000000,373349.593750,1.000000,1.000000
440408.04999115,4464001.18000214,6.01999998,2,255,0,6.000000,17.000000,373349.593750,1.000000,1.000000
440406.51999237,4464000.98999969,6.34000015,16,255,0,6.000000,30.000000,373349.593750,1.000000,1.000000
440407.98999359,4464000.69999878,6.05999994,4,255,0,6.000000,1.000000,373349.593750,1.000000,1.000000
440406.48999359,4464000.80999939,6.17000008,9,255,0,6.000000,14.000000,373349.593750,1.000000,1.000000
440407.97999146,4464000.58000366,6.19999981,10,255,0,6.000000,17.000000,373349.593750,1.000000,1.000000
440406.46999695,4464000.68999664,6.15999985,8,255,0,6.000000,30.000000,373349.593750,1.000000,1.000000
440406.35999634,4464000.50000183,5.05999994,0,216,38,6.000000,14.000000,373349.593750,1.000000,1.000000
440407.93999817,4464000.29000275,6.01000023,2,255,0,6.000000,17.000000,373349.593750,1.000000,1.000000
440406.42999603,4464000.39000122,6.19000006,10,255,0,6.000000,30.000000,373349.593750,1.000000,1.000000
440407.90999176,4464000.11000244,5.94000006,0,255,0,6.000000,1.000000,373349.593750,1.000000,1.000000
440407.89999725,4464000.00000183,5.92000008,0,253,1,6.000000,17.000000,373349.593750,1.000000,1.000000
440407.84999420,4463999.54000275,6.01999998,2,255,0,6.000000,1.000000,373349.593750,1.000000,1.000000
440407.81999542,4463999.40999786,5.53999996,0,237,17,6.000000,17.000000,373349.593750,1.000000,1.000000
440403.29999115,4463999.92000000,6.03000021,3,255,0,6.000000,26.000000,373349.593750,0.000000,1.000000
440407.81999542,4463999.25999634,5.90000010,0,252,2,6.000000,1.000000,373349.593750,1.000000,1.000000
440407.79999115,4463999.14000122,5.82000017,0,249,5,6.000000,17.000000,373349.593750,1.000000,1.000000
440407.76999237,4463998.93999664,5.82000017,0,249,5,6.000000,1.000000,373349.593750,0.000000,1.000000
440407.76999237,4463998.85000031,6.46000004,21,255,0,6.000000,17.000000,373349.593750,1.000000,1.000000
440407.74999573,4463998.68000214,6.46999979,22,255,0,6.000000,1.000000,373349.593750,1.000000,1.000000
440407.68999817,4463998.36000244,5.90000010,0,252,2,6.000000,1.000000,373349.593750,1.000000,1.000000
440407.66999390,4463998.23999969,5.78999996,0,248,6,6.000000,17.000000,373349.593750,1.000000,1.000000
440406.06999542,4463997.54999725,5.48000002,0,234,20,6.000000,14.000000,373349.593750,0.000000,1.000000
440406.12999298,4463997.50999634,6.57999992,26,255,0,6.000000,30.000000,373349.593750,1.000000,1.000000
440409.00999786,4463996.90999786,4.76000023,0,204,50,6.000000,19.000000,373349.593750,0.000000,1.000000
440406.07999756,4463997.04000275,6.57000017,26,255,0,6.000000,14.000000,373349.593750,0.000000,1.000000
440405.96999695,4463996.82000153,4.80000019,0,205,49,6.000000,30.000000,373349.593750,1.000000,1.000000
440407.40999176,4463996.05999939,5.59000015,0,239,15,6.000000,1.000000,373349.593750,1.000000,1.000000
440407.25999786,4464003.08000366,5.92999983,0,254,0,6.000000,30.000000,373349.687500,0.000000,1.000000
440407.24999573,4464002.92000000,5.65999985,0,242,12,6.000000,14.000000,373349.687500,0.000000,1.000000
440407.16999390,4464002.18000214,6.23999977,12,255,0,6.000000,30.000000,373349.687500,1.000000,1.000000
440408.50999786,4464000.58999817,6.34999990,17,255,0,6.000000,17.000000,373349.687500,1.000000,1.000000
440408.48999359,4464000.42000000,6.28000021,14,255,0,6.000000,1.000000,373349.687500,1.000000,1.000000
440408.43999817,4464000.11999695,5.67000008,0,243,11,6.000000,1.000000,373349.687500,1.000000,1.000000
440406.97999146,4464000.22000305,6.57000017,26,255,0,6.000000,14.000000,373349.687500,1.000000,1.000000
440408.43999817,4464000.01999847,6.40999985,19,255,0,6.000000,17.000000,373349.687500,1.000000,1.000000
440406.91999390,4464000.10000031,5.76000023,0,246,8,6.000000,30.000000,373349.687500,1.000000,1.000000
440406.91999390,4463999.80999939,6.15999985,8,255,0,6.000000,30.000000,373349.687500,0.000000,1.000000
440406.89999725,4463999.65000336,6.23999977,12,255,0,6.000000,14.000000,373349.687500,1.000000,1.000000
440403.77999451,4463999.75000183,5.82000017,0,249,5,6.000000,10.000000,373349.687500,1.000000,1.000000
440406.88999512,4463999.36000244,6.48999977,23,255,0,6.000000,14.000000,373349.687500,1.000000,1.000000
440406.84999420,4463999.07000153,6.44000006,20,255,0,6.000000,14.000000,373349.687500,1.000000,1.000000
440408.25999786,4463998.67000000,5.34999990,0,229,25,6.000000,1.000000,373349.687500,1.000000,1.000000
440408.22999146,4463998.37999908,5.55000019,0,237,17,6.000000,1.000000,373349.687500,1.000000,1.000000
440408.17999603,4463998.07000153,5.28000021,0,226,28,6.000000,1.000000,373349.687500,1.000000,1.000000
440408.19999268,4463998.01999847,6.30000019,14,255,0,6.000000,17.000000,373349.687500,0.000000,1.000000
440406.67999603,4463998.04999725,5.96000004,0,255,0,6.000000,30.000000,373349.687500,1.000000,1.000000
440408.17999603,4463997.86000244,5.98999977,1,255,0,6.000000,1.000000,373349.687500,1.000000,1.000000
440408.15999176,4463997.72999756,5.86000013,0,251,3,6.000000,17.000000,373349.687500,1.000000,1.000000
440408.13999512,4463997.54000275,5.61000013,0,240,14,6.000000,1.000000,373349.687500,1.000000,1.000000
440405.16999390,4463997.80999939,6.42999983,20,255,0,6.000000,12.000000,373349.687500,1.000000,1.000000
440405.14999725,4463997.68999664,6.36999989,17,255,0,6.000000,28.000000,373349.687500,1.000000,1.000000
440406.64999725,4463997.50000183,6.23999977,12,255,0,6.000000,30.000000,373349.687500,0.000000,1.000000
440405.04999115,4463997.46000092,5.57000017,0,238,16,6.000000,12.000000,373349.687500,1.000000,1.000000
440406.51999237,4463997.22000305,4.82000017,0,206,48,6.000000,14.000000,373349.687500,0.000000,1.000000
440406.47999146,4463997.08999817,4.63999987,0,198,56,6.000000,30.000000,373349.687500,0.000000,1.000000
440408.08999207,4463997.00000183,6.13000011,7,255,0,6.000000,1.000000,373349.687500,1.000000,1.000000
440406.61999084,4463996.96000092,6.26000023,13,255,0,6.000000,30.000000,373349.687500,1.000000,1.000000
440405.07999756,4463996.93999664,6.38999987,18,255,0,6.000000,12.000000,373349.687500,0.000000,1.000000
440407.98999359,4463996.39000122,5.57000017,0,238,16,6.000000,1.000000,373349.687500,1.000000,1.000000
440407.94999268,4463996.18999664,4.82000017,0,206,48,6.000000,17.000000,373349.687500,1.000000,1.000000
440407.92999603,4463996.01999847,4.94000006,0,211,43,6.000000,1.000000,373349.687500,1.000000,1.000000
440406.41999390,4464003.22999756,6.51000023,23,255,0,6.000000,28.000000,373349.781250,1.000000,1.000000
440406.37999298,4464003.05999939,6.40000010,19,255,0,6.000000,12.000000,373349.781250,1.000000,1.000000
440406.35999634,4464002.93999664,6.21999979,11,255,0,6.000000,28.000000,373349.781250,0.000000,1.000000
440406.25999786,4464002.83000366,5.34999990,0,229,25,6.000000,12.000000,373349.781250,1.000000,1.000000
440406.28999664,4464002.67000000,5.82999992,0,249,5,6.000000,28.000000,373349.781250,1.000000,1.000000
440406.19999268,4464002.07000153,5.78000021,0,247,7,6.000000,28.000000,373349.781250,0.000000,1.000000
440407.72999146,4464001.22999756,6.42000008,20,255,0,6.000000,30.000000,373349.781250,1.000000,1.000000
440406.03999664,4464001.18999664,5.00000000,0,214,40,6.000000,28.000000,373349.781250,0.000000,1.000000
440407.70999481,4464000.93999664,6.40000010,19,255,0,6.000000,30.000000,373349.781250,1.000000,1.000000
440407.65999176,4464000.47000305,6.63999987,29,255,0,6.000000,14.000000,373349.781250,1.000000,1.000000
440409.05999329,4463999.97000305,5.17000008,0,221,33,6.000000,17.000000,373349.781250,1.000000,1.000000
440407.57999756,4464000.04999725,6.17999983,9,255,0,6.000000,30.000000,373349.781250,1.000000,1.000000
440409.03999664,4463999.79000275,5.23999977,0,224,30,6.000000,1.000000,373349.781250,0.000000,1.000000
440407.55999329,4463999.87999908,5.94000006,0,255,0,6.000000,14.000000,373349.781250,1.000000,1.000000
440407.54999115,4463999.75999634,6.03999996,3,255,0,6.000000,30.000000,373349.781250,1.000000,1.000000
440407.53999664,4463999.60000031,6.26000023,13,255,0,6.000000,14.000000,373349.781250,1.000000,1.000000
440407.41999390,4463998.44999878,6.51000023,23,255,0,6.000000,14.000000,373349.781250,0.000000,1.000000
440407.35999634,4463998.29000275,5.76000023,0,246,8,6.000000,30.000000,373349.781250,1.000000,1.000000
440407.32999756,4463998.11999695,5.76000023,0,246,8,6.000000,14.000000,373349.781250,0.000000,1.000000
440407.32999756,4463998.00999634,5.88999987,0,252,2,6.000000,30.000000,373349.781250,1.000000,1.000000
440404.13999512,4463998.15999786,5.07000017,0,217,37,6.000000,10.000000,373349.781250,0.000000,1.000000
440408.68999817,4463996.87999908,5.23000002,0,224,30,6.000000,1.000000,373349.781250,1.000000,1.000000
440408.66999390,4463996.75000183,5.09000015,0,218,36,6.000000,17.000000,373349.781250,1.000000,1.000000
440407.04999115,4463995.76999847,4.88999987,0,209,45,6.000000,14.000000,373349.781250,1.000000,1.000000
440406.99999573,4463995.61000244,4.46999979,0,191,63,6.000000,30.000000,373349.781250,1.000000,1.000000
440406.82999756,4464003.01999847,5.75000000,0,246,8,6.000000,12.000000,373349.906250,0.000000,1.000000
440406.80999329,4464002.72000305,5.67999983,0,243,11,6.000000,12.000000,373349.906250,1.000000,1.000000
440406.80999329,4464002.58999817,5.86000013,0,251,3,6.000000,28.000000,373349.906250,1.000000,1.000000
440406.77999451,4464002.40999786,6.15999985,8,255,0,6.000000,12.000000,373349.906250,1.000000,1.000000
440406.76999237,4464002.29000275,6.23999977,12,255,0,6.000000,28.000000,373349.906250,0.000000,1.000000
440406.76999237,4464002.10000031,6.38999987,18,255,0,6.000000,12.000000,373349.906250,0.000000,1.000000
440406.74999573,4464001.79999725,6.36000013,17,255,0,6.000000,12.000000,373349.906250,0.000000,1.000000
440406.71999695,4464001.68000214,6.25000000,12,255,0,6.000000,28.000000,373349.906250,1.000000,1.000000
440408.15999176,4464000.87999908,5.48000002,0,234,20,6.000000,30.000000,373349.906250,0.000000,1.000000
440408.11999084,4464000.69999878,5.13999987,0,220,34,6.000000,14.000000,373349.906250,0.000000,1.000000
440406.63999512,4464000.79000275,6.17999983,9,255,0,6.000000,28.000000,373349.906250,1.000000,1.000000
440408.18999817,4464000.58000366,6.55000019,26,255,0,6.000000,30.000000,373349.906250,0.000000,1.000000
440406.58999207,4464000.33000366,6.30999994,15,255,0,6.000000,12.000000,373349.906250,1.000000,1.000000
440406.58999207,4464000.19999878,6.40999985,19,255,0,6.000000,28.000000,373349.906250,1.000000,1.000000
440408.08999207,4464000.00000183,6.11999989,7,255,0,6.000000,30.000000,373349.906250,1.000000,1.000000
440408.05999329,4463999.82000153,5.78999996,0,248,6,6.000000,14.000000,373349.906250,1.000000,1.000000
440406.46999695,4463999.72999756,5.57000017,0,238,16,6.000000,12.000000,373349.906250,0.000000,1.000000
440408.04999115,4463999.54000275,6.13000011,7,255,0,6.000000,14.000000,373349.906250,1.000000,1.000000
440406.46999695,4463999.61000244,5.65999985,0,242,12,6.000000,28.000000,373349.906250,0.000000,1.000000
440403.35999634,4463999.83000366,5.71000004,0,244,10,6.000000,8.000000,373349.906250,1.000000,1.000000
440407.96999695,4463999.11999695,5.76000023,0,246,8,6.000000,30.000000,373349.906250,1.000000,1.000000
440407.95999481,4463998.96000092,5.69999981,0,244,10,6.000000,14.000000,373349.906250,1.000000,1.000000
440407.94999268,4463998.85000031,5.67000008,0,243,11,6.000000,30.000000,373349.906250,1.000000,1.000000
440406.46999695,4463998.87999908,6.32000017,15,255,0,6.000000,12.000000,373349.906250,1.000000,1.000000
440407.93999817,4463998.68000214,5.90000010,0,252,2,6.000000,14.000000,373349.906250,1.000000,1.000000
440403.24999573,4463999.11000244,5.55999994,0,238,16,6.000000,24.000000,373349.906250,0.000000,1.000000
440406.39999725,4463998.73999969,5.78999996,0,248,6,6.000000,28.000000,373349.906250,0.000000,1.000000
440407.87999298,4463998.36999695,5.57000017,0,238,16,6.000000,14.000000,373349.906250,1.000000,1.000000
440406.44999268,4463998.48999969,6.63999987,29,255,0,6.000000,28.000000,373349.906250,1.000000,1.000000
440407.84999420,4463998.23999969,5.36000013,0,229,25,6.000000,30.000000,373349.906250,1.000000,1.000000
440407.81999542,4463998.05999939,5.40000010,0,231,23,6.000000,14.000000,373349.906250,0.000000,1.000000
440407.84999420,4463997.97999756,5.59000015,0,239,15,6.000000,30.000000,373349.906250,0.000000,1.000000
440406.36999084,4463998.00999634,6.42000008,20,255,0,6.000000,12.000000,373349.906250,1.000000,1.000000
440407.79999115,4463997.79000275,5.26000023,0,225,29,6.000000,14.000000,373349.906250,0.000000,1.000000
440407.79999115,4463997.67000000,5.28999996,0,226,28,6.000000,30.000000,373349.906250,1.000000,1.000000
440407.77999451,4463997.48999969,5.59000015,0,239,15,6.000000,14.000000,373349.906250,1.000000,1.000000
440404.79999115,4463997.48999969,6.57000017,26,255,0,6.000000,26.000000,373349.906250,0.000000,1.000000
440406.30999329,4463997.30999939,6.55999994,26,255,0,6.000000,28.000000,373349.906250,0.000000,1.000000
440406.16999390,4463997.07000153,5.46000004,0,234,20,6.000000,12.000000,373349.906250,0.000000,1.000000
440406.14999725,4463996.94999878,4.94000006,0,211,43,6.000000,28.000000,373349.906250,1.000000,1.000000
440407.71999695,4463996.83999817,5.84999990,0,250,4,6.000000,30.000000,373349.906250,0.000000,1.000000
440406.15999176,4463996.79000275,5.23999977,0,224,30,6.000000,12.000000,373349.906250,1.000000,1.000000
440406.01999237,4463996.03000061,4.92000008,0,210,44,6.000000,28.000000,373349.906250,1.000000,1.000000
440407.56999542,4463995.90000336,5.09999990,0,218,36,6.000000,30.000000,373349.906250,1.000000,1.000000
440407.54999115,4463995.72999756,5.03999996,0,216,38,6.000000,14.000000,373349.906250,1.000000,1.000000
440405.89999725,4464003.11000244,6.48999977,23,255,0,6.000000,10.000000,373350.000000,0.000000,1.000000
440405.88999512,4464002.97999756,6.42999983,20,255,0,6.000000,26.000000,373350.000000,1.000000,1.000000
440407.35999634,4464002.79999725,5.71999979,0,245,9,6.000000,28.000000,373350.000000,1.000000,1.000000
440407.32999756,4464002.50999634,5.71000004,0,244,10,6.000000,28.000000,373350.000000,1.000000,1.000000
440405.82999756,4464002.39000122,6.51999998,24,255,0,6.000000,26.000000,373350.000000,1.000000,1.000000
440407.28999664,4464002.01999847,6.00000000,2,255,0,6.000000,12.000000,373350.000000,1.000000,1.000000
440404.17999603,4464002.14000122,6.61000013,28,255,0,6.000000,8.000000,373350.000000,0.000000,1.000000
440407.23999359,4464001.72999756,5.65000010,0,242,12,6.000000,12.000000,373350.000000,1.000000,1.000000
440407.19999268,4464001.00999634,6.11000013,6,255,0,6.000000,28.000000,373350.000000,1.000000,1.000000
440407.22999146,4464000.79999725,6.40999985,19,255,0,6.000000,12.000000,373350.000000,0.000000,1.000000
440408.62999298,4464000.18999664,5.73999977,0,246,8,6.000000,30.000000,373350.000000,1.000000,1.000000
440408.63999512,4463999.90999786,6.17999983,9,255,0,6.000000,30.000000,373350.000000,0.000000,1.000000
440407.13999512,4463999.93999664,6.30000019,14,255,0,6.000000,12.000000,373350.000000,1.000000,1.000000
440408.62999298,4463999.75000183,6.38000011,18,255,0,6.000000,14.000000,373350.000000,0.000000,1.000000
440407.11999084,4463999.82000153,6.28999996,14,255,0,6.000000,28.000000,373350.000000,1.000000,1.000000
440403.93999817,4464000.03000061,5.78999996,0,248,6,6.000000,8.000000,373350.000000,0.000000,1.000000
440405.63999512,4463999.85000031,6.65000010,29,255,0,6.000000,10.000000,373350.000000,1.000000,1.000000
440408.54999115,4463999.33000366,5.86000013,0,251,3,6.000000,30.000000,373350.000000,0.000000,1.000000
440408.52999451,4463999.14000122,5.88000011,0,252,2,6.000000,14.000000,373350.000000,1.000000,1.000000
440402.51999237,4463999.83000366,6.67999983,31,255,0,6.000000,22.000000,373350.000000,1.000000,1.000000
440407.03999664,4463999.07000153,6.34999990,17,255,0,6.000000,12.000000,373350.000000,0.000000,1.000000
440406.97999146,4463998.76999847,6.03999996,3,255,0,6.000000,12.000000,373350.000000,1.000000,1.000000
440408.42999603,4463998.55999939,5.36999989,0,230,24,6.000000,14.000000,373350.000000,1.000000,1.000000
440406.99999573,4463998.50999634,6.61000013,28,255,0,6.000000,12.000000,373350.000000,1.000000,1.000000
440406.97999146,4463998.39000122,6.55000019,26,255,0,6.000000,28.000000,373350.000000,1.000000,1.000000
440408.37999298,4463998.14000122,5.30000019,0,227,27,6.000000,30.000000,373350.000000,1.000000,1.000000
440406.95999481,4463998.22000305,6.57000017,26,255,0,6.000000,12.000000,373350.000000,1.000000,1.000000
440406.92999603,4463998.08999817,6.46000004,21,255,0,6.000000,28.000000,373350.000000,0.000000,1.000000
440408.33999207,4463997.43000214,5.73999977,0,246,8,6.000000,14.000000,373350.000000,1.000000,1.000000
440405.34999420,4463997.68000214,6.40999985,19,255,0,6.000000,26.000000,373350.000000,0.000000,1.000000
440408.32999756,4463997.33000366,5.98000002,1,255,0,6.000000,30.000000,373350.000000,1.000000,1.000000
440408.32999756,4463997.15999786,6.05000019,4,255,0,6.000000,14.000000,373350.000000,0.000000,1.000000
440406.84999420,4463997.22999756,6.34000015,16,255,0,6.000000,28.000000,373350.000000,1.000000,1.000000
440406.79999115,4463997.03000061,5.98999977,1,255,0,6.000000,12.000000,373350.000000,0.000000,1.000000
440408.29999115,4463996.87999908,5.92999983,0,254,0,6.000000,14.000000,373350.000000,1.000000,1.000000
440408.20999481,4463996.68000214,5.07999992,0,217,37,6.000000,30.000000,373350.000000,1.000000,1.000000
440408.19999268,4463996.51999847,5.15000010,0,220,34,6.000000,14.000000,373350.000000,1.000000,1.000000
440408.13999512,4463996.19999878,4.96000004,0,212,42,6.000000,14.000000,373350.000000,1.000000,1.000000
440405.24999573,4463996.54000275,6.67999983,31,255,0,6.000000,26.000000,373350.000000,1.000000,1.000000
440408.12999298,4463996.08000366,4.98000002,0,213,41,6.000000,30.000000,373350.000000,1.000000,1.000000
440406.45999481,4464003.26999847,6.50000000,23,255,0,6.000000,10.000000,373350.093750,0.000000,1.000000
440406.39999725,4464002.85000031,6.30000019,14,255,0,6.000000,26.000000,373350.093750,0.000000,1.000000
440406.30999329,4464002.71000092,5.80999994,0,249,5,6.000000,10.000000,373350.093750,1.000000,1.000000
440406.29999115,4464002.58999817,5.88999987,0,252,2,6.000000,26.000000,373350.093750,1.000000,1.000000
440406.28999664,4464002.40000336,5.96000004,0,255,0,6.000000,10.000000,373350.093750,1.000000,1.000000
440406.35999634,4464002.25999634,6.53000021,24,255,0,6.000000,26.000000,373350.093750,0.000000,1.000000
440406.34999420,4464002.07000153,6.61999989,29,255,0,6.000000,10.000000,373350.093750,0.000000,1.000000
440407.84999420,4464001.26999847,6.44000006,20,255,0,6.000000,12.000000,373350.093750,0.000000,1.000000
440407.85999634,4464001.15000336,6.61999989,29,255,0,6.000000,28.000000,373350.093750,1.000000,1.000000
440406.04999115,4464001.21000092,5.01000023,0,214,40,6.000000,10.000000,373350.093750,0.000000,1.000000
440407.83999207,4464000.85000031,6.63000011,29,255,0,6.000000,28.000000,373350.093750,0.000000,1.000000
440407.80999329,4464000.68999664,6.53000021,24,255,0,6.000000,12.000000,373350.093750,0.000000,1.000000
440407.78999664,4464000.57000153,6.53999996,25,255,0,6.000000,28.000000,373350.093750,1.000000,1.000000
440407.73999359,4464000.40000336,6.55000019,26,255,0,6.000000,12.000000,373350.093750,1.000000,1.000000
440409.15999176,4464000.18999664,4.94000006,0,211,43,6.000000,14.000000,373350.093750,0.000000,1.000000
440406.08999207,4464000.47999756,5.61000013,0,240,14,6.000000,26.000000,373350.093750,0.000000,1.000000
440409.14999725,4464000.08000366,5.03999996,0,216,38,6.000000,30.000000,373350.093750,1.000000,1.000000
440407.64999725,4464000.11000244,5.98000002,1,255,0,6.000000,12.000000,373350.093750,1.000000,1.000000
440409.12999298,4463999.90000336,4.86000013,0,208,46,6.000000,14.000000,373350.093750,0.000000,1.000000
440407.57999756,4463998.83000366,6.50000000,23,255,0,6.000000,28.000000,373350.093750,0.000000,1.000000
440407.48999359,4463998.50999634,5.94000006,0,255,0,6.000000,28.000000,373350.093750,1.000000,1.000000
440407.43999817,4463998.33000366,5.75000000,0,246,8,6.000000,12.000000,373350.093750,1.000000,1.000000
440407.42999603,4463998.21000092,5.76000023,0,246,8,6.000000,28.000000,373350.093750,1.000000,1.000000
440408.91999390,4463997.60000031,5.69000006,0,243,11,6.000000,14.000000,373350.093750,0.000000,1.000000
440404.31999542,4463997.43000214,6.46999979,22,255,0,6.000000,24.000000,373350.093750,1.000000,1.000000
440408.78999664,4463996.86000244,4.63999987,0,198,56,6.000000,30.000000,373350.093750,1.000000,1.000000
440405.82999756,4463997.08999817,6.17999983,9,255,0,6.000000,10.000000,373350.093750,1.000000,1.000000
440407.38999512,4463996.93999664,6.13000011,7,255,0,6.000000,12.000000,373350.093750,1.000000,1.000000
440407.21999695,4463996.72000305,4.90999985,0,210,44,6.000000,28.000000,373350.093750,0.000000,1.000000
440404.18999817,4463996.93999664,5.94999981,0,255,0,6.000000,8.000000,373350.093750,1.000000,1.000000
440407.34999420,4463996.65000336,6.17000008,9,255,0,6.000000,12.000000,373350.093750,0.000000,1.000000
440404.16999390,4463996.82000153,5.90000010,0,252,2,6.000000,24.000000,373350.093750,0.000000,1.000000
440407.23999359,4463996.46000092,5.36000013,0,229,25,6.000000,28.000000,373350.093750,1.000000,1.000000
440407.08999207,4463995.62999908,4.51000023,0,192,62,6.000000,12.000000,373350.093750,0.000000,1.000000
440406.89999725,4464003.15999786,5.76000023,0,246,8,6.000000,10.000000,373350.187500,0.000000,1.000000
440406.87999298,4464003.04000275,5.71999979,0,245,9,6.000000,26.000000,373350.187500,0.000000,1.000000
440406.86999084,4464002.85000031,5.63000011,0,241,13,6.000000,10.000000,373350.187500,1.000000,1.000000
440406.85999634,4464001.64000122,6.30999994,15,255,0,6.000000,10.000000,373350.187500,1.000000,1.000000
440406.87999298,4464001.50999634,6.55999994,26,255,0,6.000000,26.000000,373350.187500,1.000000,1.000000
440406.86999084,4464001.33000366,6.67999983,31,255,0,6.000000,10.000000,373350.187500,1.000000,1.000000
440408.29999115,4464001.03000061,5.90999985,0,253,1,6.000000,28.000000,373350.187500,1.000000,1.000000
440408.28999664,4464000.85000031,5.82000017,0,249,5,6.000000,12.000000,373350.187500,0.000000,1.000000
440406.77999451,4464000.93000214,6.36999989,17,255,0,6.000000,26.000000,373350.187500,1.000000,1.000000
440408.26999237,4464000.54999725,5.98000002,1,255,0,6.000000,12.000000,373350.187500,0.000000,1.000000
440406.69999268,4464000.64000122,6.05000019,4,255,0,6.000000,26.000000,373350.187500,0.000000,1.000000
440406.71999695,4464000.33000366,6.50000000,23,255,0,6.000000,26.000000,373350.187500,1.000000,1.000000
440406.67999603,4464000.15999786,6.36999989,17,255,0,6.000000,10.000000,373350.187500,0.000000,1.000000
440408.18999817,4463999.96000092,5.73000002,0,245,9,6.000000,12.000000,373350.187500,0.000000,1.000000
440408.20999481,4463999.85000031,6.09000015,5,255,0,6.000000,28.000000,373350.187500,0.000000,1.000000
440408.20999481,4463999.68999664,6.17000008,9,255,0,6.000000,12.000000,373350.187500,1.000000,1.000000
440408.18999817,4463999.57000153,6.13000011,7,255,0,6.000000,28.000000,373350.187500,0.000000,1.000000
440408.11999084,4463999.37999908,5.63999987,0,241,13,6.000000,12.000000,373350.187500,0.000000,1.000000
440408.09999420,4463999.25999634,5.61999989,0,240,14,6.000000,28.000000,373350.187500,1.000000,1.000000
440403.17999603,4463999.64000122,4.71000004,0,201,53,6.000000,6.000000,373350.187500,0.000000,1.000000
440403.23999359,4463999.53000061,5.09000015,0,218,36,6.000000,22.000000,373350.187500,0.000000,1.000000
440403.28999664,4463999.33999817,5.44000006,0,233,21,6.000000,6.000000,373350.187500,0.000000,1.000000
440408.02999451,4463998.79999725,5.28000021,0,226,28,6.000000,12.000000,373350.187500,1.000000,1.000000
440403.29999115,4463999.22999756,5.59000015,0,239,15,6.000000,22.000000,373350.187500,1.000000,1.000000
440408.06999542,4463998.53000061,6.01000023,2,255,0,6.000000,12.000000,373350.187500,1.000000,1.000000
440408.00999786,4463998.39000122,5.57999992,0,239,15,6.000000,28.000000,373350.187500,1.000000,1.000000
440406.54999115,4463998.42000000,6.44999981,21,255,0,6.000000,10.000000,373350.187500,1.000000,1.000000
440408.05999329,4463998.14000122,6.36999989,17,255,0,6.000000,28.000000,373350.187500,0.000000,1.000000
440408.03999664,4463997.97000305,6.03999996,3,255,0,6.000000,12.000000,373350.187500,1.000000,1.000000
440407.99999573,4463997.83999817,5.84999990,0,250,4,6.000000,28.000000,373350.187500,1.000000,1.000000
440407.94999268,4463997.64000122,5.53000021,0,237,17,6.000000,12.000000,373350.187500,1.000000,1.000000
440407.91999390,4463997.50000183,5.38000011,0,230,24,6.000000,28.000000,373350.187500,0.000000,1.000000
440404.89999725,4463997.58999817,6.38999987,18,255,0,6.000000,24.000000,373350.187500,1.000000,1.000000
440404.72999146,4463997.36000244,5.76000023,0,246,8,6.000000,8.000000,373350.187500,1.000000,1.000000
440406.26999237,4463997.07000153,5.51000023,0,236,18,6.000000,26.000000,373350.187500,1.000000,1.000000
440407.88999512,4463996.96000092,5.65999985,0,242,12,6.000000,28.000000,373350.187500,1.000000,1.000000
440406.42999603,4463996.87999908,6.28000021,14,255,0,6.000000,26.000000,373350.187500,1.000000,1.000000
440406.40999176,4463996.72000305,6.30999994,15,255,0,6.000000,10.000000,373350.187500,1.000000,1.000000
440407.69999268,4463996.11000244,5.05999994,0,216,38,6.000000,12.000000,373350.187500,1.000000,1.000000
440406.10999634,4463996.15000336,4.73999977,0,203,51,6.000000,26.000000,373350.187500,0.000000,1.000000
440407.69999268,4463995.85000031,5.07000017,0,217,37,6.000000,12.000000,373350.187500,0.000000,1.000000
440407.68999817,4463995.72999756,5.07999992,0,217,37,6.000000,28.000000,373350.187500,0.000000,1.000000
440407.66999390,4463995.55999939,5.11999989,0,219,35,6.000000,12.000000,373350.187500,0.000000,1.000000
440405.94999268,4464003.15999786,6.51999998,24,255,0,6.000000,8.000000,373350.281250,1.000000,1.000000
440405.92999603,4464003.04000275,6.44999981,21,255,0,6.000000,24.000000,373350.281250,1.000000,1.000000
440405.89999725,4464002.86999695,6.26999998,13,255,0,6.000000,8.000000,373350.281250,1.000000,1.000000
440407.37999298,4464002.68000214,5.67000008,0,243,11,6.000000,10.000000,373350.281250,0.000000,1.000000
440407.38999512,4464002.55999939,5.76000023,0,246,8,6.000000,26.000000,373350.281250,1.000000,1.000000
440407.33999207,4464002.37999908,5.59999990,0,240,14,6.000000,10.000000,373350.281250,0.000000,1.000000
440405.88999512,4464002.25999634,6.65000010,29,255,0,6.000000,8.000000,373350.281250,1.000000,1.000000
440407.36999084,4464002.08000366,6.03000021,3,255,0,6.000000,10.000000,373350.281250,0.000000,1.000000
440407.28999664,4464001.97000305,5.44999981,0,233,21,6.000000,26.000000,373350.281250,1.000000,1.000000
440407.29999115,4464001.76999847,5.57000017,0,238,16,6.000000,10.000000,373350.281250,0.000000,1.000000
440407.30999329,4464001.65000336,5.71000004,0,244,10,6.000000,26.000000,373350.281250,0.000000,1.000000
440407.28999664,4464001.05999939,6.07999992,5,255,0,6.000000,26.000000,373350.281250,0.000000,1.000000
440407.26999237,4464000.87999908,5.80000019,0,248,6,6.000000,10.000000,373350.281250,1.000000,1.000000
440405.73999359,4464000.78000061,6.26999998,13,255,0,6.000000,8.000000,373350.281250,1.000000,1.000000
440407.33999207,4464000.58000366,6.61999989,29,255,0,6.000000,10.000000,373350.281250,1.000000,1.000000
440408.78999664,4464000.39000122,5.53000021,0,237,17,6.000000,12.000000,373350.281250,1.000000,1.000000
440405.73999359,4464000.65999786,6.32000017,15,255,0,6.000000,24.000000,373350.281250,0.000000,1.000000
440408.76999237,4464000.26999847,5.96000004,0,255,0,6.000000,28.000000,373350.281250,1.000000,1.000000
440407.28999664,4464000.28000061,6.53000021,24,255,0,6.000000,10.000000,373350.281250,1.000000,1.000000
440408.70999481,4464000.08999817,5.57999992,0,239,15,6.000000,12.000000,373350.281250,1.000000,1.000000
440407.24999573,4464000.15999786,6.36000013,17,255,0,6.000000,26.000000,373350.281250,0.000000,1.000000
440407.23999359,4464000.00000183,6.40000010,19,255,0,6.000000,10.000000,373350.281250,1.000000,1.000000
440405.72999146,4463999.89000122,6.59000015,27,255,0,6.000000,8.000000,373350.281250,1.000000,1.000000
440402.55999329,4463999.86999695,6.57999992,26,255,0,6.000000,20.000000,373350.281250,1.000000,1.000000
440405.27999451,4463998.83000366,4.78000021,0,204,50,6.000000,24.000000,373350.281250,0.000000,1.000000
440408.53999664,4463998.50000183,5.42000008,0,232,22,6.000000,28.000000,373350.281250,1.000000,1.000000
440408.51999237,4463998.32000153,5.42000008,0,232,22,6.000000,12.000000,373350.281250,0.000000,1.000000
