//X,Y,Z,R,G,B,Point Source ID,User Data,Time,Intensity,Classification
440530.02999451,4464032.76999847,8.44999981,107,255,0,5.000000,7.000000,373287.656250,63.000000,1.000000
440529.57999756,4464033.05999939,8.42000008,106,255,0,5.000000,7.000000,373287.750000,63.000000,1.000000
440531.72999146,4464033.36999695,8.11999989,93,255,0,5.000000,21.000000,373287.750000,63.000000,1.000000
440529.10000183,4464032.43999664,8.06999969,91,255,0,5.000000,7.000000,373287.843750,63.000000,1.000000
440529.08999207,4464032.62999908,8.11999989,93,255,0,5.000000,23.000000,373287.843750,63.000000,1.000000
440529.07999756,4464032.87999908,8.06999969,91,255,0,5.000000,7.000000,373287.843750,63.000000,1.000000
440530.65999939,4464033.40000336,6.71999979,32,255,0,5.000000,21.000000,373287.937500,63.000000,1.000000
440530.10999634,4464033.03000061,7.71999979,76,255,0,5.000000,5.000000,373288.062500,63.000000,1.000000
440527.88999512,4464032.79999725,7.23000002,55,255,0,5.000000,23.000000,373288.062500,63.000000,1.000000
440529.56998779,4464032.67000000,8.56999969,112,255,0,5.000000,5.000000,373288.156250,63.000000,1.000000
440529.55999329,4464032.80999939,8.42000008,106,255,0,5.000000,21.000000,373288.156250,63.000000,1.000000
440529.54999878,4464033.08000366,8.34000015,102,255,0,5.000000,5.000000,373288.156250,63.000000,1.000000
440531.67998840,4464033.40999786,8.00000000,88,255,0,5.000000,19.000000,373288.156250,63.000000,1.000000
440528.80999329,4464032.55999939,7.76000023,77,255,0,5.000000,5.000000,373288.250000,63.000000,1.000000
440531.95998718,4464033.11999695,7.92999983,85,255,0,5.000000,17.000000,373288.437500,63.000000,1.000000
440529.81998779,4464032.92000000,8.27000046,99,255,0,5.000000,19.000000,373288.437500,63.000000,1.000000
440531.92998840,4464033.35000031,7.90000010,83,255,0,5.000000,1.000000,373288.437500,63.000000,1.000000
440529.35999634,4464033.04999725,8.25000000,98,255,0,5.000000,19.000000,373288.562500,63.000000,1.000000
440528.77999451,4464032.60000031,7.94999981,85,255,0,5.000000,19.000000,373288.656250,63.000000,1.000000
440528.74000122,4464032.93999664,8.18000031,95,255,0,5.000000,3.000000,373288.656250,63.000000,1.000000
440532.06998779,4464032.37999908,6.71000004,32,255,0,5.000000,14.000000,373288.937500,63.000000,1.000000
440529.74000122,4464032.85000031,8.65999985,116,255,0,5.000000,1.000000,373288.937500,63.000000,1.000000
440529.77999451,4464033.44000427,7.32999992,59,255,0,5.000000,1.000000,373288.937500,63.000000,1.000000
440529.27999451,4464032.18000214,8.14999962,94,255,0,5.000000,17.000000,373289.062500,63.000000,1.000000
440529.25999023,4464032.58000366,7.94000006,85,255,0,5.000000,17.000000,373289.062500,63.000000,1.000000
440529.22999146,4464032.90000336,8.17000008,95,255,0,5.000000,1.000000,373289.062500,63.000000,1.000000
440528.58999207,4464032.25999634,8.03999996,89,255,0,5.000000,17.000000,373289.156250,63.000000,1.000000
440532.18999817,4464033.44999878,7.88000011,83,255,0,5.000000,28.000000,373289.250000,63.000000,1.000000
440531.99999573,4464032.29999725,6.71000004,32,255,0,5.000000,28.000000,373289.343750,63.000000,1.000000
440529.63000061,4464032.73999969,8.60999966,114,255,0,5.000000,14.000000,373289.343750,63.000000,1.000000
440529.61999084,4464032.90999786,8.56000042,112,255,0,5.000000,30.000000,373289.343750,63.000000,1.000000
440529.33999207,4464032.30999939,7.80000019,79,255,0,5.000000,30.000000,373289.437500,63.000000,1.000000
440529.27000000,4464032.83000366,8.06000042,90,255,0,5.000000,30.000000,373289.437500,63.000000,1.000000
440529.22999146,4464033.11000244,8.05000019,90,255,0,5.000000,14.000000,373289.437500,63.000000,1.000000
440528.74000122,4464032.29999725,7.94999981,85,255,0,5.000000,30.000000,373289.562500,63.000000,1.000000
440528.71999695,4464032.58000366,8.01000023,88,255,0,5.000000,14.000000,373289.562500,63.000000,1.000000
440529.58999207,4464032.90000336,8.60000038,113,255,0,5.000000,28.000000,373289.750000,63.000000,1.000000
440529.58999207,4464033.12999908,8.38000011,104,255,0,5.000000,12.000000,373289.750000,63.000000,1.000000
440529.28998901,4464032.72000305,8.47000027,108,255,0,5.000000,28.000000,373289.843750,63.000000,1.000000
440529.30999329,4464032.92000000,8.15999985,94,255,0,5.000000,12.000000,373289.843750,63.000000,1.000000
440529.27000000,4464033.14000122,8.27000046,99,255,0,5.000000,28.000000,373289.843750,63.000000,1.000000
440528.80999329,4464032.25000183,7.92999983,85,255,0,5.000000,12.000000,373289.937500,63.000000,1.000000
440528.78998901,4464032.67000000,7.80000019,79,255,0,5.000000,12.000000,373289.937500,63.000000,1.000000
440528.13999512,4464033.19999878,8.21000004,97,255,0,5.000000,28.000000,373290.062500,63.000000,1.000000
440532.14998962,4464032.53000061,6.69000006,32,255,0,5.000000,24.000000,373290.156250,63.000000,1.000000
440529.66999390,4464032.97000305,8.46000004,107,255,0,5.000000,10.000000,373290.156250,63.000000,1.000000
440529.20998718,4464032.26999847,8.03999996,89,255,0,5.000000,26.000000,373290.250000,63.000000,1.000000
440529.17998840,4464032.54000275,8.05000019,90,255,0,5.000000,10.000000,373290.250000,63.000000,1.000000
440529.13999512,4464033.00000183,8.00000000,88,255,0,5.000000,10.000000,373290.250000,63.000000,1.000000
440530.11999084,4464032.97999756,8.31000042,101,255,0,5.000000,8.000000,373290.437500,63.000000,1.000000
440529.83999207,4464032.60000031,8.23999977,98,255,0,5.000000,8.000000,373290.562500,63.000000,1.000000
440531.99999573,4464032.94999878,8.06999969,91,255,0,5.000000,22.000000,373290.562500,63.000000,1.000000
440529.77999451,4464033.07000153,8.43999958,106,255,0,5.000000,8.000000,373290.562500,63.000000,1.000000
440529.35000183,4464032.98999969,8.17000008,95,255,0,5.000000,8.000000,373290.656250,63.000000,1.000000
440529.29999878,4464033.22000305,8.22999954,97,255,0,5.000000,24.000000,373290.656250,63.000000,1.000000
440528.96999695,4464032.25000183,8.10999966,92,255,0,5.000000,24.000000,373290.750000,63.000000,1.000000
440528.95998718,4464032.65999786,8.01000023,88,255,0,5.000000,24.000000,373290.750000,63.000000,1.000000
440529.83999207,4464032.79999725,8.39999962,105,255,0,5.000000,22.000000,373290.937500,63.000000,1.000000
440527.85000183,4464033.04000275,7.03000021,46,255,0,5.000000,8.000000,373290.937500,63.000000,1.000000
440529.45998718,4464032.90999786,8.42000008,106,255,0,5.000000,6.000000,373291.062500,63.000000,1.000000
440531.66999390,4464033.25999634,7.96999979,86,255,0,5.000000,20.000000,373291.062500,61.000000,1.000000
440529.49999573,4464033.05999939,8.21000004,97,255,0,5.000000,22.000000,373291.062500,63.000000,1.000000
440529.07999756,4464032.33999817,8.25000000,98,255,0,5.000000,6.000000,373291.156250,63.000000,1.000000
440529.07999756,4464032.90000336,7.94000006,85,255,0,5.000000,22.000000,373291.156250,63.000000,1.000000
440529.54999878,4464032.69999878,8.57999992,112,255,0,5.000000,4.000000,373291.343750,61.000000,1.000000
440529.52999451,4464032.89000122,8.57999992,112,255,0,5.000000,20.000000,373291.343750,61.000000,1.000000
440529.56998779,4464033.10000031,8.30000019,100,255,0,5.000000,4.000000,373291.343750,60.000000,1.000000
440528.82999756,4464032.25999634,7.84999990,81,255,0,5.000000,20.000000,373291.562500,60.000000,1.000000
440529.24999573,4464033.03000061,8.17000008,95,255,0,5.000000,20.000000,373291.656250,60.000000,1.000000
440529.07999756,4464032.97999756,8.06000042,90,255,0,5.000000,4.000000,373291.750000,60.000000,1.000000
440528.52000000,4464032.15000336,7.98000002,87,255,0,5.000000,4.000000,373291.843750,60.000000,1.000000
440528.04999878,4464032.96000092,7.17999983,53,255,0,5.000000,4.000000,373291.937500,59.000000,1.000000
440529.93999817,4464032.79000275,8.39999962,105,255,0,5.000000,16.000000,373292.343750,63.000000,1.000000
440529.25999023,4464032.78000061,8.22999954,97,255,0,5.000000,16.000000,373292.437500,63.000000,1.000000
440529.30999329,4464032.98999969,7.98000002,87,255,0,5.000000,0.000000,373292.437500,63.000000,1.000000
440528.60999634,4464033.42000000,7.67999983,74,255,0,6.000000,29.000000,373368.500000,51.000000,1.000000
440528.40999939,4464032.90000336,8.22000027,97,255,0,6.000000,13.000000,373368.500000,52.000000,1.000000
440528.39998962,4464032.75999634,8.07999992,91,255,0,6.000000,29.000000,373368.500000,52.000000,1.000000
440531.74000122,4464033.22999756,7.09000015,49,255,0,6.000000,31.000000,373368.593750,63.000000,1.000000
440528.85999634,4464032.90999786,8.26000023,99,255,0,6.000000,29.000000,373368.593750,52.000000,1.000000
440528.66999390,4464032.11999695,8.28999996,100,255,0,6.000000,13.000000,373368.593750,52.000000,1.000000
440529.19999268,4464032.79999725,8.52999973,110,255,0,6.000000,13.000000,373368.687500,52.000000,1.000000
440529.16999390,4464032.64000122,8.40999985,105,255,0,6.000000,29.000000,373368.687500,52.000000,1.000000
440529.56998779,4464032.83000366,8.60000038,113,255,0,6.000000,29.000000,373368.812500,52.000000,1.000000
440529.50999023,4464032.61999695,8.65999985,116,255,0,6.000000,29.000000,373368.906250,52.000000,1.000000
440527.61999084,4464033.42999451,8.09000015,91,255,0,6.000000,27.000000,373369.000000,63.000000,1.000000
440528.60000183,4464032.97000305,8.11999989,93,255,0,6.000000,11.000000,373369.187500,63.000000,1.000000
440528.47999146,4464032.46000092,8.02000046,88,255,0,6.000000,11.000000,373369.187500,63.000000,1.000000
440529.31998779,4464032.87999908,8.52999973,110,255,0,6.000000,27.000000,373369.312500,63.000000,1.000000
440531.43999817,4464033.29999725,7.92000008,84,255,0,6.000000,27.000000,373369.500000,63.000000,1.000000
440531.50999023,4464032.97000305,6.90000010,41,255,0,6.000000,27.000000,373369.500000,63.000000,1.000000
440528.66999390,4464032.48999969,8.21000004,97,255,0,6.000000,25.000000,373369.500000,63.000000,1.000000
440528.63000061,4464032.23999969,8.06000042,90,255,0,6.000000,9.000000,373369.500000,63.000000,1.000000
440529.31998779,4464033.11000244,8.35000038,103,255,0,6.000000,9.000000,373369.593750,63.000000,1.000000
440529.46999695,4464032.94999878,8.52000046,110,255,0,6.000000,25.000000,373369.687500,63.000000,1.000000
440527.47999146,4464033.03000061,7.11999989,50,255,0,6.000000,23.000000,373369.906250,63.000000,1.000000
440528.32999756,4464032.68000214,8.03999996,89,255,0,6.000000,7.000000,373370.093750,63.000000,1.000000
440528.27999451,4464032.44999878,8.03999996,89,255,0,6.000000,23.000000,373370.093750,63.000000,1.000000
440531.41999390,4464033.15999786,7.84000015,81,255,0,6.000000,9.000000,373370.187500,63.000000,1.000000
440528.86999084,4464033.11999695,8.09000015,91,255,0,6.000000,23.000000,373370.187500,63.000000,1.000000
440528.83999207,4464032.92000000,7.92999983,85,255,0,6.000000,7.000000,373370.187500,63.000000,1.000000
440528.78998901,4464032.71000092,7.90999985,84,255,0,6.000000,23.000000,373370.187500,63.000000,1.000000
440528.66999390,4464032.28000061,8.23999977,98,255,0,6.000000,7.000000,373370.187500,63.000000,1.000000
440528.65999939,4464032.14000122,8.09000015,91,255,0,6.000000,23.000000,373370.187500,63.000000,1.000000
440531.89998962,4464033.21000092,6.78000021,35,255,0,6.000000,25.000000,373370.312500,63.000000,1.000000
440531.75999023,4464032.58000366,6.86999989,39,255,0,6.000000,9.000000,373370.312500,63.000000,1.000000
440531.22999146,4464033.44999878,7.92999983,85,255,0,6.000000,7.000000,373370.593750,63.000000,1.000000
440528.49999573,4464032.43000214,8.17000008,95,255,0,6.000000,21.000000,373370.593750,63.000000,1.000000
440529.19999268,4464033.04999725,8.43999958,106,255,0,6.000000,21.000000,373370.687500,63.000000,1.000000
440529.13000061,4464032.72000305,8.51000023,109,255,0,6.000000,5.000000,373370.687500,63.000000,1.000000
440531.72999146,4464032.72999756,6.90999985,41,255,0,6.000000,23.000000,373370.687500,63.000000,1.000000
440532.05999329,4464033.08000366,6.76999998,35,255,0,6.000000,7.000000,373370.812500,63.000000,1.000000
440531.47999146,4464033.37999908,8.01000023,88,255,0,6.000000,21.000000,373371.187500,63.000000,1.000000
440531.44999268,4464033.22000305,7.71999979,76,255,0,6.000000,5.000000,373371.187500,63.000000,1.000000
440528.88999512,4464033.00999634,8.19999981,96,255,0,6.000000,19.000000,373371.187500,63.000000,1.000000
440528.86999084,4464032.89000122,7.96999979,86,255,0,6.000000,3.000000,373371.187500,63.000000,1.000000
440528.75999023,4464032.25000183,8.23999977,98,255,0,6.000000,3.000000,373371.187500,63.000000,1.000000
440529.41999390,4464032.96000092,8.57999992,112,255,0,6.000000,3.000000,373371.312500,63.000000,1.000000
440530.28998901,4464033.32000153,6.71000004,32,255,0,6.000000,19.000000,373371.406250,63.000000,1.000000
440528.41999390,4464032.90000336,8.34000015,102,255,0,6.000000,1.000000,373371.500000,63.000000,1.000000
440528.38999512,4464032.79999725,8.11999989,93,255,0,6.000000,17.000000,373371.500000,63.000000,1.000000
440531.54999878,4464033.22000305,7.96999979,86,255,0,6.000000,3.000000,373371.593750,63.000000,1.000000
440529.00999023,4464033.00999634,8.38000011,104,255,0,6.000000,17.000000,373371.593750,63.000000,1.000000
440528.95998718,4464032.71000092,8.42000008,106,255,0,6.000000,1.000000,373371.593750,63.000000,1.000000
440528.91999390,4464032.55999939,7.73000002,76,255,0,6.000000,1.000000,373371.593750,63.000000,1.000000
440529.41999390,4464032.93999664,8.53999996,111,255,0,6.000000,17.000000,373371.687500,63.000000,1.000000
440529.38000061,4464032.73999969,8.32999992,102,255,0,6.000000,1.000000,373371.687500,63.000000,1.000000
440531.41999390,4464033.35000031,8.01000023,88,255,0,6.000000,17.000000,373372.000000,63.000000,1.000000
440528.80999329,4464032.96000092,7.94999981,85,255,0,6.000000,30.000000,373372.000000,63.000000,1.000000
440528.74999573,4464032.29000275,8.31999969,101,255,0,6.000000,30.000000,373372.000000,63.000000,1.000000
440527.67998840,4464033.40999786,8.25000000,98,255,0,6.000000,12.000000,373372.187500,63.000000,1.000000
440530.13000061,4464033.36000244,6.71999979,32,255,0,6.000000,14.000000,373372.187500,63.000000,1.000000
440528.56998779,4464032.82000153,8.27999973,100,255,0,6.000000,12.000000,373372.500000,63.000000,1.000000
440531.77000000,4464033.29000275,7.19999981,53,255,0,6.000000,30.000000,373372.593750,63.000000,1.000000
440529.25999023,4464032.83000366,8.57999992,112,255,0,6.000000,28.000000,373372.593750,63.000000,1.000000
440531.65999939,4464032.79000275,6.84999990,38,255,0,6.000000,14.000000,373372.593750,63.000000,1.000000
440529.47999146,4464032.83000366,8.75000000,120,255,0,6.000000,28.000000,373372.687500,63.000000,1.000000
440531.49000122,4464033.33999817,8.02999973,88,255,0,6.000000,28.000000,373373.000000,63.000000,1.000000
440528.89998962,4464032.90999786,8.42000008,106,255,0,6.000000,26.000000,373373.000000,63.000000,1.000000
440528.85000183,4464032.86000244,7.92999983,85,255,0,6.000000,10.000000,373373.000000,63.000000,1.000000
440529.57999756,4464032.80999939,8.47999954,108,255,0,6.000000,26.000000,373373.093750,63.000000,1.000000
440529.94999268,4464033.44000427,6.71999979,32,255,0,6.000000,26.000000,373373.187500,63.000000,1.000000
440528.25999023,4464032.72999756,8.10999966,92,255,0,6.000000,8.000000,373373.406250,63.000000,1.000000
440529.10000183,4464033.36999695,8.31999969,101,255,0,6.000000,24.000000,373373.500000,63.000000,1.000000
440529.07999756,4464032.93999664,8.56000042,112,255,0,6.000000,8.000000,373373.500000,63.000000,1.000000
440528.61999084,4464032.85000031,8.27999973,100,255,0,6.000000,6.000000,373373.812500,63.000000,1.000000
440529.40999939,4464032.97999756,8.60000038,113,255,0,6.000000,22.000000,373373.906250,63.000000,1.000000
440531.50999023,4464033.40000336,8.14000034,94,255,0,6.000000,22.000000,373374.093750,63.000000,1.000000
440528.81998779,4464032.87999908,8.10000038,92,255,0,6.000000,4.000000,373374.093750,55.000000,1.000000
440528.78998901,4464032.68999664,8.03999996,89,255,0,6.000000,20.000000,373374.093750,55.000000,1.000000
440528.77000000,4464032.33000366,8.25000000,98,255,0,6.000000,4.000000,373374.093750,55.000000,1.000000
440531.52000000,4464033.36000244,8.05000019,90,255,0,6.000000,20.000000,373374.687500,55.000000,1.000000
440528.74000122,4464032.40000336,8.27999973,100,255,0,6.000000,16.000000,373375.093750,63.000000,1.000000
440525.41999390,4464038.30000488,7.61999989,71,255,0,4.000000,29.000000,373243.750000,50.000000,1.000000
440525.97999146,4464037.72000305,8.35000038,103,255,0,4.000000,29.000000,373243.937500,50.000000,1.000000
440525.49999573,4464038.25000183,7.59000015,70,255,0,4.000000,11.000000,373244.250000,63.000000,1.000000
440528.40999939,4464036.14999573,8.19999981,96,255,0,4.000000,29.000000,373244.250000,51.000000,1.000000
440525.82999756,4464037.80000488,8.11999989,93,255,0,4.000000,11.000000,373244.343750,63.000000,1.000000
440528.90999939,4464036.86999695,7.05000019,47,255,0,4.000000,13.000000,373244.343750,51.000000,1.000000
440525.81998779,4464037.49000732,8.14999962,94,255,0,4.000000,27.000000,373244.343750,63.000000,1.000000
440527.14998962,4464038.97999756,7.69999981,75,255,0,4.000000,27.000000,373244.625000,63.000000,1.000000
440530.67998840,4464038.92000000,7.26000023,56,255,0,4.000000,29.000000,373244.750000,49.000000,1.000000
440531.11999084,4464037.80999939,6.84999990,38,255,0,4.000000,29.000000,373244.843750,50.000000,1.000000
440531.07999756,4464037.69999878,7.23000002,55,255,0,4.000000,13.000000,373244.843750,50.000000,1.000000
440531.03998901,4464035.59999268,7.80999994,80,255,0,4.000000,29.000000,373244.843750,51.000000,1.000000
440531.03998901,4464035.33999817,8.02999973,88,255,0,4.000000,13.000000,373244.843750,51.000000,1.000000
440528.60000183,4464036.08999817,7.98999977,87,255,0,4.000000,27.000000,373244.937500,63.000000,1.000000
440526.38999512,4464037.80999939,7.92999983,85,255,0,4.000000,9.000000,373245.031250,63.000000,1.000000
440526.33999207,4464037.81999390,8.75000000,120,255,0,4.000000,9.000000,373245.031250,63.000000,1.000000
440529.24999573,4464036.36999695,8.80000019,122,255,0,4.000000,11.000000,373245.031250,63.000000,1.000000
440529.90999939,4464037.39000122,7.44999981,64,255,0,4.000000,11.000000,373245.125000,63.000000,1.000000
440529.89998962,4464034.91000549,7.26999998,56,255,0,4.000000,11.000000,373245.125000,63.000000,1.000000
440530.39998962,4464035.28999512,7.23000002,55,255,0,4.000000,27.000000,373245.250000,63.000000,1.000000
440527.31998779,4464035.55000488,8.57999992,112,255,0,4.000000,25.000000,373245.250000,63.000000,1.000000
440530.94999268,4464036.06999390,7.21000004,53,255,0,4.000000,27.000000,373245.343750,63.000000,1.000000
440534.02999451,4464035.02000610,6.84000015,38,255,0,4.000000,13.000000,373245.343750,52.000000,1.000000
440534.46999695,4464035.44999878,7.21999979,54,255,0,4.000000,13.000000,373245.437500,51.000000,1.000000
440525.94999268,4464038.02000610,7.94999981,85,255,0,4.000000,7.000000,373245.531250,63.000000,1.000000
440525.85999634,4464036.05000488,7.42000008,62,255,0,4.000000,7.000000,373245.531250,63.000000,1.000000
440526.33999207,4464038.08999817,7.86999989,82,255,0,4.000000,7.000000,373245.625000,63.000000,1.000000
440530.27000000,4464035.06999390,7.21999979,54,255,0,4.000000,9.000000,373245.843750,63.000000,1.000000
440527.82999756,4464035.63000671,8.88000011,125,255,0,4.000000,23.000000,373245.937500,63.000000,1.000000
440527.78998901,4464034.72000305,8.88000011,125,255,0,4.000000,23.000000,373245.937500,63.000000,1.000000
440528.39998962,4464035.53000061,7.25000000,56,255,0,4.000000,7.000000,373246.031250,63.000000,1.000000
440528.99999573,4464038.55000488,7.44000006,64,255,0,4.000000,23.000000,373246.125000,63.000000,1.000000
440529.42998840,4464037.67000000,7.28000021,56,255,0,4.000000,7.000000,373246.250000,63.000000,1.000000
440530.53998901,4464036.05000488,8.43000031,106,255,0,4.000000,7.000000,373246.437500,63.000000,1.000000
440531.06998779,4464035.80000488,7.73000002,76,255,0,4.000000,23.000000,373246.531250,63.000000,1.000000
440531.02000000,4464035.30999939,8.10000038,92,255,0,4.000000,23.000000,373246.531250,63.000000,1.000000
440530.74000122,4464037.77000610,7.28000021,56,255,0,4.000000,21.000000,373247.031250,63.000000,1.000000
440525.39998962,4464035.11000244,7.21000004,53,255,0,4.000000,1.000000,373247.250000,63.000000,1.000000
440526.47999146,4464038.11000244,7.76999998,78,255,0,4.000000,1.000000,373247.343750,63.000000,1.000000
440529.22999146,4464036.00999634,7.15999985,52,255,0,4.000000,3.000000,373247.343750,63.000000,1.000000
440529.30999329,4464036.58999817,8.85000038,124,255,0,4.000000,19.000000,373247.343750,63.000000,1.000000
440527.05999329,4464033.50000183,8.02999973,88,255,0,4.000000,17.000000,373247.531250,63.000000,1.000000
440528.00999023,4464036.72999756,7.32000017,59,255,0,4.000000,17.000000,373247.625000,63.000000,1.000000
440531.17998840,4464035.38000671,8.01000023,88,255,0,4.000000,19.000000,373247.750000,63.000000,1.000000
440530.96999695,4464033.56999390,7.80000019,79,255,0,4.000000,19.000000,373247.750000,63.000000,1.000000
440526.39998962,4464038.14999573,7.82999992,80,255,0,4.000000,14.000000,373247.937500,63.000000,1.000000
440529.35999634,4464037.77000610,7.26000023,56,255,0,4.000000,17.000000,373247.937500,63.000000,1.000000
440529.13999512,4464036.08999817,7.25000000,56,255,0,4.000000,17.000000,373247.937500,63.000000,1.000000
440531.13999512,4464037.89000122,7.11000013,50,255,0,4.000000,17.000000,373248.250000,63.000000,1.000000
440532.49999573,4464035.80999939,7.82999992,80,255,0,4.000000,17.000000,373248.531250,63.000000,1.000000
440530.24000122,4464036.22000305,7.67000008,74,255,0,4.000000,14.000000,373248.625000,63.000000,1.000000
440534.32999756,4464035.61000244,7.30999994,58,255,0,4.000000,1.000000,373248.750000,63.000000,1.000000
440529.43999817,4464037.70999329,7.28999996,57,255,0,4.000000,12.000000,373248.843750,63.000000,1.000000
440530.11999084,4464037.44000427,7.51999998,67,255,0,4.000000,12.000000,373249.031250,63.000000,1.000000
440532.54999878,4464035.83000366,7.86999989,82,255,0,4.000000,14.000000,373249.125000,63.000000,1.000000
440529.28998901,4464037.56999390,7.40000010,62,255,0,4.000000,12.000000,373249.250000,63.000000,1.000000
440531.14998962,4464037.83999817,7.13000011,50,255,0,4.000000,12.000000,373249.531250,63.000000,1.000000
440533.90999939,4464035.92000000,7.00000000,44,255,0,4.000000,14.000000,373249.531250,63.000000,1.000000
440527.78998901,4464034.78999512,8.84000015,124,255,0,4.000000,8.000000,373249.937500,63.000000,1.000000
440529.10000183,4464038.55999939,7.17999983,53,255,0,4.000000,24.000000,373250.031250,63.000000,1.000000
440530.85000183,4464039.05999939,7.01999998,46,255,0,4.000000,24.000000,373250.343750,63.000000,1.000000
440529.03998901,4464038.34999268,7.50000000,66,255,0,4.000000,6.000000,373250.531250,63.000000,1.000000
440526.49999573,4464038.06999390,7.86000013,82,255,0,4.000000,4.000000,373250.625000,55.000000,1.000000
440526.85000183,4464037.75999634,7.13000011,50,255,0,4.000000,4.000000,373250.750000,56.000000,1.000000
440526.38999512,4464038.28999512,7.96999979,86,255,0,4.000000,20.000000,373251.156250,56.000000,1.000000
440528.92998840,4464038.50999634,7.63000011,72,255,0,4.000000,4.000000,373251.531250,55.000000,1.000000
440529.57999756,4464037.61000244,7.44000006,64,255,0,4.000000,4.000000,373251.656250,56.000000,1.000000
440531.15999939,4464038.02000610,7.34999990,59,255,0,4.000000,20.000000,373251.843750,55.000000,1.000000
440534.38999512,4464035.67999451,7.30000019,58,255,0,4.000000,6.000000,373251.937500,63.000000,1.000000
440531.17998840,4464035.61999695,8.11999989,93,255,0,4.000000,20.000000,373251.937500,56.000000,1.000000
440531.77999451,4464035.53000061,8.17000008,95,255,0,4.000000,20.000000,373252.031250,56.000000,1.000000
440535.70998718,4464036.25000183,6.71000004,32,255,0,5.000000,15.000000,373284.656250,63.000000,1.000000
440534.05999329,4464034.89999573,7.44000006,64,255,0,5.000000,15.000000,373284.937500,63.000000,1.000000
440534.06998779,4464035.06999390,7.55999994,69,255,0,5.000000,31.000000,373284.937500,63.000000,1.000000
440533.96999695,4464035.67999451,7.05999994,47,255,0,5.000000,15.000000,373284.937500,63.000000,1.000000
440533.86999084,4464034.92000000,7.61999989,71,255,0,5.000000,15.000000,373285.062500,63.000000,1.000000
440535.47999146,4464035.75999634,7.11000013,50,255,0,5.000000,13.000000,373285.156250,61.000000,1.000000
440533.35999634,4464036.00999634,7.76999998,78,255,0,5.000000,31.000000,373285.156250,63.000000,1.000000
440535.41999390,4464036.14000122,6.76000023,35,255,0,5.000000,13.000000,373285.156250,61.000000,1.000000
440532.35000183,4464034.50999634,7.13000011,50,255,0,5.000000,15.000000,373285.250000,63.000000,1.000000
440532.42998840,4464034.77000610,7.53999996,68,255,0,5.000000,31.000000,373285.250000,63.000000,1.000000
440534.55999329,4464035.36999695,7.07999992,48,255,0,5.000000,13.000000,373285.250000,61.000000,1.000000
440532.50999023,4464035.50999634,7.96000004,85,255,0,5.000000,15.000000,373285.250000,63.000000,1.000000
440532.52999451,4464035.69999878,8.06999969,91,255,0,5.000000,31.000000,373285.250000,63.000000,1.000000
440532.29999878,4464038.05999939,7.07000017,47,255,0,5.000000,31.000000,373285.250000,63.000000,1.000000
440533.90999939,4464034.86000244,7.53999996,68,255,0,5.000000,29.000000,373285.343750,61.000000,1.000000
440533.82999756,4464035.44999878,7.09000015,49,255,0,5.000000,13.000000,373285.343750,61.000000,1.000000
440531.46999695,4464038.33999817,7.00000000,44,255,0,5.000000,15.000000,373285.343750,63.000000,1.000000
440531.45998718,4464038.75999634,6.96000004,43,255,0,5.000000,15.000000,373285.343750,63.000000,1.000000
440533.67998840,4464035.22999756,7.67000008,74,255,0,5.000000,13.000000,373285.437500,61.000000,1.000000
440533.60999634,4464035.33000366,7.25000000,56,255,0,5.000000,29.000000,373285.437500,61.000000,1.000000
440533.63000061,4464035.61000244,7.36999989,61,255,0,5.000000,13.000000,373285.437500,61.000000,1.000000
440535.79999878,4464035.80000488,7.21999979,54,255,0,5.000000,27.000000,373285.437500,63.000000,1.000000
440531.60999634,4464036.17999451,8.52999973,110,255,0,5.000000,15.000000,373285.437500,63.000000,1.000000
440533.58999207,4464036.17000000,7.03999996,47,255,0,5.000000,29.000000,373285.437500,61.000000,1.000000
440531.41999390,4464036.44999878,7.57999992,70,255,0,5.000000,15.000000,373285.437500,63.000000,1.000000
440532.85999634,4464034.22999756,6.80999994,36,255,0,5.000000,13.000000,373285.562500,60.000000,1.000000
440530.75999023,4464034.33999817,7.61000013,71,255,0,5.000000,15.000000,373285.562500,63.000000,1.000000
440535.10999634,4464035.78999512,6.69000006,32,255,0,5.000000,27.000000,373285.562500,63.000000,1.000000
440533.02999451,4464035.89999573,7.76000023,77,255,0,5.000000,29.000000,373285.562500,62.000000,1.000000
440535.11999084,4464036.06999390,6.73000002,33,255,0,5.000000,11.000000,373285.562500,63.000000,1.000000
440532.85999634,4464035.97999756,6.73000002,33,255,0,5.000000,13.000000,373285.562500,61.000000,1.000000
440532.88000061,4464036.61000244,6.73000002,33,255,0,5.000000,29.000000,373285.562500,61.000000,1.000000
440530.63000061,4464036.55999939,6.96000004,43,255,0,5.000000,31.000000,373285.562500,63.000000,1.000000
440530.57999756,4464033.80000488,8.53999996,111,255,0,5.000000,15.000000,373285.656250,63.000000,1.000000
440530.25999023,4464034.50999634,7.05999994,47,255,0,5.000000,31.000000,373285.656250,63.000000,1.000000
440532.63000061,4464034.92999451,7.48999977,65,255,0,5.000000,13.000000,373285.656250,61.000000,1.000000
440532.74000122,4464035.49000732,8.23999977,98,255,0,5.000000,13.000000,373285.656250,62.000000,1.000000
440532.70998718,4464035.63000671,8.07999992,91,255,0,5.000000,29.000000,373285.656250,62.000000,1.000000
440530.40999939,4464035.49000732,7.65000010,73,255,0,5.000000,31.000000,373285.656250,63.000000,1.000000
440532.70998718,4464035.88000671,8.03999996,89,255,0,5.000000,13.000000,373285.656250,62.000000,1.000000
440534.72999146,4464035.88000671,6.92999983,41,255,0,5.000000,27.000000,373285.656250,63.000000,1.000000
440530.21999695,4464037.31999390,6.98999977,44,255,0,5.000000,15.000000,373285.656250,63.000000,1.000000
440530.24000122,4464037.50000183,7.05999994,47,255,0,5.000000,31.000000,373285.656250,63.000000,1.000000
440530.27000000,4464037.75999634,7.19999981,53,255,0,5.000000,15.000000,373285.656250,63.000000,1.000000
440532.52999451,4464037.99000732,7.07000017,47,255,0,5.000000,29.000000,373285.656250,61.000000,1.000000
440531.96999695,4464033.80000488,7.65999985,73,255,0,5.000000,13.000000,373285.750000,61.000000,1.000000
440531.93999817,4464033.94000427,7.50000000,66,255,0,5.000000,29.000000,373285.750000,61.000000,1.000000
440531.79999878,4464034.02000610,6.78000021,35,255,0,5.000000,13.000000,373285.750000,60.000000,1.000000
440534.13000061,4464034.80999939,7.51999998,67,255,0,5.000000,27.000000,373285.750000,63.000000,1.000000
440531.89998962,4464034.74000732,7.34000015,59,255,0,5.000000,29.000000,373285.750000,61.000000,1.000000
440534.13999512,4464035.08000366,7.69000006,74,255,0,5.000000,11.000000,373285.750000,63.000000,1.000000
440534.02000000,4464035.34999268,6.84000015,38,255,0,5.000000,11.000000,373285.750000,63.000000,1.000000
440531.99999573,4464035.53000061,8.02000046,88,255,0,5.000000,13.000000,373285.750000,62.000000,1.000000
440534.04999878,4464035.55999939,7.03000021,46,255,0,5.000000,27.000000,373285.750000,63.000000,1.000000
440531.99000122,4464035.69000427,7.96000004,85,255,0,5.000000,29.000000,373285.750000,62.000000,1.000000
440534.02000000,4464035.80000488,6.84000015,38,255,0,5.000000,11.000000,373285.750000,63.000000,1.000000
440531.95998718,4464035.94000427,7.82999992,80,255,0,5.000000,13.000000,373285.750000,62.000000,1.000000
440529.88999512,4464036.17000000,8.64000034,115,255,0,5.000000,31.000000,373285.750000,63.000000,1.000000
440531.85000183,4464036.39999573,7.19000006,53,255,0,5.000000,29.000000,373285.750000,61.000000,1.000000
440531.83999207,4464036.64999573,7.11999989,50,255,0,5.000000,13.000000,373285.750000,61.000000,1.000000
440529.49999573,4464036.95999329,6.96999979,44,255,0,5.000000,15.000000,373285.750000,63.000000,1.000000
440531.81998779,4464037.67000000,7.01000023,45,255,0,5.000000,29.000000,373285.750000,61.000000,1.000000
440531.74000122,4464038.30999939,7.05999994,47,255,0,5.000000,13.000000,373285.750000,61.000000,1.000000
440531.74999573,4464038.49000732,7.11999989,50,255,0,5.000000,29.000000,373285.750000,61.000000,1.000000
440529.56998779,4464038.70999329,7.44000006,64,255,0,5.000000,15.000000,373285.750000,63.000000,1.000000
440531.74999573,4464038.89999573,7.11999989,50,255,0,5.000000,29.000000,373285.750000,61.000000,1.000000
440533.27999451,4464035.25999634,7.46000004,65,255,0,5.000000,27.000000,373285.843750,63.000000,1.000000
440531.02999451,4464035.17999451,7.26999998,56,255,0,5.000000,29.000000,373285.843750,61.000000,1.000000
440528.85999634,4464035.19999878,7.90000010,83,255,0,5.000000,31.000000,373285.843750,63.000000,1.000000
440535.43999817,4464035.50999634,7.01000023,45,255,0,5.000000,9.000000,373285.843750,63.000000,1.000000
440531.02999451,4464035.42999451,7.26000023,56,255,0,5.000000,13.000000,373285.843750,61.000000,1.000000
440529.02000000,4464035.75999634,8.64999962,115,255,0,5.000000,31.000000,373285.843750,63.000000,1.000000
440533.32999756,4464036.02000610,7.73999977,77,255,0,5.000000,11.000000,373285.843750,63.000000,1.000000
440529.03998901,4464036.03999512,8.78999996,121,255,0,5.000000,15.000000,373285.843750,63.000000,1.000000
440535.40999939,4464036.09999268,6.84000015,38,255,0,5.000000,25.000000,373285.843750,63.000000,1.000000
440531.03998901,4464036.03999512,7.34999990,59,255,0,5.000000,29.000000,373285.843750,61.000000,1.000000
440528.99000122,4464036.17000000,8.56999969,112,255,0,5.000000,31.000000,373285.843750,63.000000,1.000000
440531.03998901,4464036.30999939,7.40999985,62,255,0,5.000000,13.000000,373285.843750,61.000000,1.000000
440528.60999634,4464037.84999268,6.98999977,44,255,0,5.000000,15.000000,373285.843750,63.000000,1.000000
440528.60000183,4464038.02000610,6.98999977,44,255,0,5.000000,31.000000,373285.843750,63.000000,1.000000
440530.38000061,4464034.55999939,7.05999994,47,255,0,5.000000,13.000000,373285.937500,60.000000,1.000000
440532.70998718,4464034.91000549,7.50000000,66,255,0,5.000000,27.000000,373285.937500,63.000000,1.000000
440530.38000061,4464034.72999756,7.03999996,47,255,0,5.000000,29.000000,373285.937500,60.000000,1.000000
440528.30999329,4464035.13000671,8.47000027,108,255,0,5.000000,15.000000,373285.937500,63.000000,1.000000
440532.74999573,4464035.64999573,7.90000010,83,255,0,5.000000,11.000000,373285.937500,63.000000,1.000000
440532.75999023,4464035.83999817,7.96000004,85,255,0,5.000000,27.000000,373285.937500,63.000000,1.000000
440532.58999207,4464036.31999390,6.78000021,35,255,0,5.000000,11.000000,373285.937500,63.000000,1.000000
440530.36999084,4464036.28999512,6.98000002,44,255,0,5.000000,13.000000,373285.937500,61.000000,1.000000
440534.77999451,4464036.97000305,6.73999977,33,255,0,5.000000,25.000000,373285.937500,63.000000,1.000000
440530.44999268,4464037.22000305,7.61000013,71,255,0,5.000000,13.000000,373285.937500,61.000000,1.000000
440528.16999390,4464037.14000122,7.71000004,75,255,0,5.000000,15.000000,373285.937500,63.000000,1.000000
440530.38000061,4464037.59999268,7.19999981,53,255,0,5.000000,13.000000,373285.937500,61.000000,1.000000
440530.38000061,4464037.77000610,7.21000004,53,255,0,5.000000,29.000000,373285.937500,61.000000,1.000000
440530.36999084,4464038.03000061,7.36999989,61,255,0,5.000000,13.000000,373285.937500,61.000000,1.000000
440530.30999329,4464038.58000366,7.09999990,49,255,0,5.000000,29.000000,373285.937500,61.000000,1.000000
440532.19999268,4464033.63000671,7.78000021,78,255,0,5.000000,11.000000,373286.062500,63.000000,1.000000
440532.06998779,4464033.86000244,6.82000017,37,255,0,5.000000,11.000000,373286.062500,63.000000,1.000000
440530.11999084,4464034.31999390,8.77000046,121,255,0,5.000000,29.000000,373286.062500,62.000000,1.000000
440527.52000000,4464034.16000549,7.55000019,68,255,0,5.000000,15.000000,373286.062500,63.000000,1.000000
440527.64998962,4464034.44999878,8.14000034,94,255,0,5.000000,31.000000,373286.062500,63.000000,1.000000
440529.82999756,4464034.67000000,7.05999994,47,255,0,5.000000,13.000000,373286.062500,60.000000,1.000000
440534.27999451,4464034.94999878,6.98000002,44,255,0,5.000000,25.000000,373286.062500,63.000000,1.000000
440530.04999878,4464035.36000244,8.35999966,103,255,0,5.000000,13.000000,373286.062500,62.000000,1.000000
440529.75999023,4464035.47999756,6.94999981,42,255,0,5.000000,13.000000,373286.062500,60.000000,1.000000
440530.06998779,4464035.97000305,8.40999985,105,255,0,5.000000,29.000000,373286.062500,62.000000,1.000000
440532.10999634,4464036.08999817,7.38000011,61,255,0,5.000000,11.000000,373286.062500,63.000000,1.000000
440530.11999084,4464036.27000610,8.75000000,120,255,0,5.000000,13.000000,373286.062500,62.000000,1.000000
440532.06998779,4464036.22000305,7.09999990,49,255,0,5.000000,27.000000,373286.062500,63.000000,1.000000
440530.04999878,4464036.36999695,8.36999989,103,255,0,5.000000,29.000000,373286.062500,62.000000,1.000000
440532.05999329,4464036.45999329,7.00000000,44,255,0,5.000000,11.000000,373286.062500,63.000000,1.000000
440527.54999878,4464036.77000610,7.32999992,59,255,0,5.000000,15.000000,373286.062500,63.000000,1.000000
440529.80999329,4464037.25000183,7.15999985,52,255,0,5.000000,13.000000,373286.062500,61.000000,1.000000
440527.72999146,4464037.33000366,8.39999962,105,255,0,5.000000,15.000000,373286.062500,63.000000,1.000000
440532.02999451,4464037.74000732,6.92999983,41,255,0,5.000000,11.000000,373286.062500,63.000000,1.000000
440529.79999878,4464037.67999451,7.13000011,50,255,0,5.000000,13.000000,373286.062500,120.000000,1.000000
440532.02000000,4464037.91000549,6.92000008,41,255,0,5.000000,27.000000,373286.062500,63.000000,1.000000
440527.54999878,4464037.80999939,7.55000019,68,255,0,5.000000,31.000000,373286.062500,63.000000,1.000000
440532.02000000,4464038.17000000,7.03999996,47,255,0,5.000000,11.000000,373286.062500,63.000000,1.000000
440529.74999573,4464038.08000366,7.09999990,49,255,0,5.000000,13.000000,373286.062500,61.000000,1.000000
440529.82999756,4464038.30999939,7.50000000,66,255,0,5.000000,29.000000,373286.062500,61.000000,1.000000
440529.82999756,4464038.55999939,7.50000000,66,255,0,5.000000,13.000000,373286.062500,61.000000,1.000000
440531.95998718,4464038.99000732,6.67999983,31,255,0,5.000000,11.000000,373286.062500,63.000000,1.000000
440531.57999756,4464034.19000427,7.23000002,55,255,0,5.000000,27.000000,373286.156250,63.000000,1.000000
440527.27999451,4464034.30999939,8.77999973,121,255,0,5.000000,31.000000,373286.156250,63.000000,1.000000
440531.54999878,4464034.42000000,7.00000000,44,255,0,5.000000,11.000000,373286.156250,63.000000,1.000000
440533.81998779,4464034.78000061,7.55000019,68,255,0,5.000000,25.000000,373286.156250,63.000000,1.000000
440531.63999512,4464034.72000305,7.63000011,72,255,0,5.000000,27.000000,373286.156250,63.000000,1.000000
440533.83999207,4464035.05000488,7.82000017,80,255,0,5.000000,9.000000,373286.156250,63.000000,1.000000
440531.63999512,4464034.97000305,7.69999981,75,255,0,5.000000,11.000000,373286.156250,63.000000,1.000000
440529.22999146,4464034.88000671,6.84000015,38,255,0,5.000000,29.000000,373286.156250,60.000000,1.000000
440533.77000000,4464035.34999268,7.15000010,51,255,0,5.000000,9.000000,373286.156250,63.000000,1.000000
440531.57999756,4464035.33000366,7.23999977,55,255,0,5.000000,11.000000,373286.156250,63.000000,1.000000
440529.54999878,4464035.50000183,8.63000011,115,255,0,5.000000,13.000000,373286.156250,62.000000,1.000000
440526.95998718,4464035.28999512,7.11000013,50,255,0,5.000000,31.000000,373286.156250,63.000000,1.000000
440531.71999695,4464035.94999878,8.26000023,99,255,0,5.000000,11.000000,373286.156250,63.000000,1.000000
440529.44999268,4464036.25000183,8.06000042,90,255,0,5.000000,13.000000,373286.156250,61.000000,1.000000
440531.50999023,4464036.56999390,6.80999994,36,255,0,5.000000,11.000000,373286.156250,63.000000,1.000000
440529.30999329,4464036.97000305,7.23999977,55,255,0,5.000000,13.000000,373286.156250,61.000000,1.000000
440527.10000183,4464037.38000671,7.73999977,77,255,0,5.000000,15.000000,373286.156250,63.000000,1.000000
440529.35999634,4464038.05999939,7.65999985,73,255,0,5.000000,29.000000,373286.156250,61.000000,1.000000
440527.24999573,4464038.09999268,8.56000042,112,255,0,5.000000,31.000000,373286.156250,63.000000,1.000000
440531.46999695,4464038.25999634,6.96999979,44,255,0,5.000000,11.000000,373286.156250,63.000000,1.000000
440529.28998901,4464038.25000183,7.21999979,54,255,0,5.000000,13.000000,373286.156250,61.000000,1.000000
440531.47999146,4464038.44999878,7.01000023,45,255,0,5.000000,27.000000,373286.156250,63.000000,1.000000
440531.46999695,4464038.69000427,6.96999979,44,255,0,5.000000,11.000000,373286.156250,63.000000,1.000000
440528.99000122,4464033.55999939,8.22999954,97,255,0,5.000000,29.000000,373286.250000,61.000000,1.000000
440533.32999756,4464033.94000427,6.86000013,38,255,0,5.000000,25.000000,373286.250000,63.000000,1.000000
440529.16999390,4464035.03999512,8.89000034,126,255,0,5.000000,29.000000,373286.250000,62.000000,1.000000
440531.15999939,4464035.06999390,7.23999977,55,255,0,5.000000,11.000000,373286.250000,63.000000,1.000000
440535.53998901,4464035.38000671,7.28000021,56,255,0,5.000000,23.000000,373286.250000,63.000000,1.000000
440531.13999512,4464035.25000183,7.23000002,55,255,0,5.000000,27.000000,373286.250000,63.000000,1.000000
440529.11999084,4464035.42999451,8.65999985,116,255,0,5.000000,29.000000,373286.250000,62.000000,1.000000
440535.52999451,4464035.59999268,7.09000015,49,255,0,5.000000,7.000000,373286.250000,63.000000,1.000000
440531.15999939,4464035.53000061,7.32000017,59,255,0,5.000000,11.000000,373286.250000,63.000000,1.000000
440529.13000061,4464035.69000427,8.68999958,117,255,0,5.000000,13.000000,373286.250000,62.000000,1.000000
440533.40999939,4464035.83999817,7.88999987,83,255,0,5.000000,25.000000,373286.250000,63.000000,1.000000
440529.13999512,4464035.86999695,8.75000000,120,255,0,5.000000,29.000000,373286.250000,62.000000,1.000000
440529.11999084,4464036.08999817,8.64999962,115,255,0,5.000000,13.000000,373286.250000,62.000000,1.000000
440526.53998901,4464035.72999756,7.17999983,53,255,0,5.000000,15.000000,373286.250000,63.000000,1.000000
440535.49999573,4464036.16000549,6.73000002,33,255,0,5.000000,23.000000,373286.250000,63.000000,1.000000
440533.29999878,4464036.08999817,6.71999979,32,255,0,5.000000,25.000000,373286.250000,63.000000,1.000000
440529.06998779,4464036.22000305,8.35999966,103,255,0,5.000000,29.000000,373286.250000,62.000000,1.000000
440533.29999878,4464036.36000244,6.73000002,33,255,0,5.000000,9.000000,373286.250000,63.000000,1.000000
440529.11999084,4464036.50999634,8.60999966,114,255,0,5.000000,13.000000,373286.250000,62.000000,1.000000
440531.13999512,4464037.41000549,7.34000015,59,255,0,5.000000,27.000000,373286.250000,63.000000,1.000000
440528.81998779,4464037.27000610,6.94000006,42,255,0,5.000000,29.000000,373286.250000,60.000000,1.000000
440531.13999512,4464037.66000549,7.32999992,59,255,0,5.000000,11.000000,373286.250000,63.000000,1.000000
440528.81998779,4464037.53000061,6.92999983,41,255,0,5.000000,13.000000,373286.250000,60.000000,1.000000
440526.74999573,4464038.02000610,8.31999969,101,255,0,5.000000,15.000000,373286.250000,63.000000,1.000000
440528.89998962,4464038.86999695,7.48000002,65,255,0,5.000000,13.000000,373286.250000,61.000000,1.000000
440528.88999512,4464039.03000061,7.51999998,67,255,0,5.000000,29.000000,373286.250000,61.000000,1.000000
440533.22999146,4464033.97000305,6.94999981,42,255,0,5.000000,9.000000,373286.343750,63.000000,1.000000
440533.24000122,4464034.17000000,7.25000000,56,255,0,5.000000,25.000000,373286.343750,63.000000,1.000000
440533.24999573,4464034.63000671,7.36000013,60,255,0,5.000000,25.000000,373286.343750,63.000000,1.000000
440529.04999878,4464035.05999939,8.85000038,124,255,0,5.000000,13.000000,373286.343750,62.000000,1.000000
440533.25999023,4464035.36000244,7.46999979,65,255,0,5.000000,9.000000,373286.343750,63.000000,1.000000
440528.88999512,4464035.30000488,7.88999987,83,255,0,5.000000,13.000000,373286.343750,61.000000,1.000000
440535.40999939,4464035.53000061,7.03999996,47,255,0,5.000000,23.000000,373286.343750,63.000000,1.000000
440533.27999451,4464035.58000366,7.75000000,77,255,0,5.000000,25.000000,373286.343750,63.000000,1.000000
440531.02999451,4464035.42999451,7.15000010,51,255,0,5.000000,27.000000,373286.343750,63.000000,1.000000
440529.02000000,4464035.63000671,8.67000008,116,255,0,5.000000,29.000000,373286.343750,62.000000,1.000000
440533.28998901,4464035.86000244,7.86000013,82,255,0,5.000000,9.000000,373286.343750,63.000000,1.000000
440533.27999451,4464036.02000610,7.65999985,73,255,0,5.000000,25.000000,373286.343750,63.000000,1.000000
440531.03998901,4464035.89000122,7.26999998,56,255,0,5.000000,27.000000,373286.343750,63.000000,1.000000
440529.02999451,4464036.06999390,8.77000046,121,255,0,5.000000,29.000000,373286.343750,62.000000,1.000000
440526.42998840,4464035.67000000,7.11000013,50,255,0,5.000000,31.000000,373286.343750,63.000000,1.000000
440535.38999512,4464036.17999451,6.71000004,32,255,0,5.000000,7.000000,373286.343750,63.000000,1.000000
440531.03998901,4464036.14000122,7.28999996,57,255,0,5.000000,11.000000,373286.343750,63.000000,1.000000
440531.05999329,4464036.33999817,7.46000004,65,255,0,5.000000,27.000000,373286.343750,63.000000,1.000000
440528.97999146,4464036.67999451,8.43000031,106,255,0,5.000000,13.000000,373286.343750,62.000000,1.000000
440529.00999023,4464036.88000671,8.64000034,115,255,0,5.000000,29.000000,373286.343750,62.000000,1.000000
440528.77999451,4464036.89999573,7.38000011,61,255,0,5.000000,13.000000,373286.343750,61.000000,1.000000
440531.02999451,4464037.42999451,7.36999989,61,255,0,5.000000,11.000000,373286.343750,63.000000,1.000000
440531.02000000,4464037.58999817,7.28999996,57,255,0,5.000000,27.000000,373286.343750,63.000000,1.000000
440528.70998718,4464037.45999329,7.13000011,50,255,0,5.000000,29.000000,373286.343750,60.000000,1.000000
440528.69999268,4464038.14000122,7.07000017,47,255,0,5.000000,13.000000,373286.343750,60.000000,1.000000
440530.63999512,4464033.61000244,6.69000006,32,255,0,5.000000,11.000000,373286.437500,63.000000,1.000000
440528.63999512,4464034.75000183,8.85999966,124,255,0,5.000000,13.000000,373286.437500,62.000000,1.000000
440528.63999512,4464034.91000549,8.81999969,123,255,0,5.000000,29.000000,373286.437500,62.000000,1.000000
440528.65999939,4464035.78999512,8.88000011,125,255,0,5.000000,29.000000,373286.437500,62.000000,1.000000
440535.04999878,4464035.94000427,6.78000021,35,255,0,5.000000,7.000000,373286.437500,63.000000,1.000000
440528.63000061,4464036.02000610,8.61999989,114,255,0,5.000000,13.000000,373286.437500,62.000000,1.000000
440532.85999634,4464036.30000488,6.75000000,34,255,0,5.000000,9.000000,373286.437500,63.000000,1.000000
440528.66999390,4464036.47000305,8.85000038,124,255,0,5.000000,13.000000,373286.437500,62.000000,1.000000
440532.85999634,4464036.47000305,6.73000002,33,255,0,5.000000,25.000000,373286.437500,63.000000,1.000000
440530.65999939,4464036.70999329,7.01000023,45,255,0,5.000000,11.000000,373286.437500,63.000000,1.000000
440530.70998718,4464037.36000244,7.51999998,67,255,0,5.000000,27.000000,373286.437500,63.000000,1.000000
440530.64998962,4464038.00000183,7.40999985,62,255,0,5.000000,11.000000,373286.437500,63.000000,1.000000
440528.35999634,4464038.05999939,7.03999996,47,255,0,5.000000,29.000000,373286.437500,60.000000,1.000000
440528.35000183,4464038.89999573,7.00000000,44,255,0,5.000000,29.000000,373286.437500,61.000000,1.000000
440532.06998779,4464033.75000183,7.46000004,65,255,0,5.000000,25.000000,373286.562500,63.000000,1.000000
440527.66999390,4464034.09999268,8.43000031,106,255,0,5.000000,29.000000,373286.562500,61.000000,1.000000
440527.52999451,4464034.19000427,7.59999990,71,255,0,5.000000,13.000000,373286.562500,60.000000,1.000000
440534.18999817,4464034.53999512,6.96999979,44,255,0,5.000000,23.000000,373286.562500,63.000000,1.000000
440529.82999756,4464034.50000183,7.40999985,62,255,0,5.000000,27.000000,373286.562500,63.000000,1.000000
440527.63999512,4464034.49000732,8.19999981,96,255,0,5.000000,29.000000,373286.562500,61.000000,1.000000
440534.20998718,4464034.84999268,7.19999981,53,255,0,5.000000,7.000000,373286.562500,63.000000,1.000000
440532.04999878,4464034.83999817,7.36999989,61,255,0,5.000000,9.000000,373286.562500,63.000000,1.000000
440532.10000183,4464035.11999695,8.03999996,89,255,0,5.000000,25.000000,373286.562500,63.000000,1.000000
440530.02999451,4464035.22999756,8.88000011,125,255,0,5.000000,27.000000,373286.562500,63.000000,1.000000
440529.92998840,4464035.34999268,8.14000034,94,255,0,5.000000,11.000000,373286.562500,63.000000,1.000000
440534.14998962,4464035.61999695,6.78999996,35,255,0,5.000000,7.000000,373286.562500,63.000000,1.000000
440532.05999329,4464035.78000061,7.84000015,81,255,0,5.000000,9.000000,373286.562500,63.000000,1.000000
440529.72999146,4464035.50999634,6.92999983,41,255,0,5.000000,11.000000,373286.562500,63.000000,1.000000
440532.04999878,4464035.92999451,7.69999981,75,255,0,5.000000,25.000000,373286.562500,63.000000,1.000000
440529.96999695,4464036.27000610,8.53999996,111,255,0,5.000000,11.000000,373286.562500,63.000000,1.000000
440531.97999146,4464036.24000732,7.05999994,47,255,0,5.000000,25.000000,373286.562500,63.000000,1.000000
440529.93999817,4464036.39999573,8.31999969,101,255,0,5.000000,27.000000,373286.562500,63.000000,1.000000
440527.46999695,4464036.31999390,7.03999996,47,255,0,5.000000,13.000000,373286.562500,60.000000,1.000000
440527.54999878,4464036.56999390,7.51000023,67,255,0,5.000000,29.000000,373286.562500,61.000000,1.000000
440527.54999878,4464036.83000366,7.48999977,65,255,0,5.000000,13.000000,373286.562500,61.000000,1.000000
440529.72999146,4464037.27000610,7.11000013,50,255,0,5.000000,11.000000,373286.562500,63.000000,1.000000
