//X,Y,Z,R,G,B,Point Source ID,User Data,Time,Intensity,Classification
440549.53000977,4464132.92000000,6.07000017,5,255,0,3.000000,1.000000,373158.250000,63.000000,1.000000
440547.29999878,4464133.63000671,5.30999994,0,227,27,3.000000,3.000000,373158.250000,63.000000,1.000000
440544.41999390,4464128.19999878,6.11999989,7,255,0,3.000000,5.000000,373158.375000,63.000000,1.000000
440551.13999512,4464130.83000366,5.73999977,0,246,8,3.000000,30.000000,373158.375000,63.000000,1.000000
440544.37000610,4464131.83000366,4.46999979,0,191,63,3.000000,21.000000,373158.375000,63.000000,1.000000
440546.59998657,4464132.44999878,6.53999996,25,255,0,3.000000,3.000000,373158.375000,63.000000,1.000000
440546.59000732,4464133.22999756,6.01999998,2,255,0,3.000000,3.000000,373158.375000,63.000000,1.000000
440552.79999878,4464130.33000366,4.90999985,0,210,44,3.000000,12.000000,373158.468750,63.000000,1.000000
440552.79999878,4464131.58999817,4.51999998,0,193,61,3.000000,12.000000,373158.468750,63.000000,1.000000
440550.40000488,4464133.69999878,4.92000008,0,210,44,3.000000,30.000000,373158.468750,63.000000,1.000000
440552.24998047,4464131.36000244,5.19999981,0,222,32,3.000000,28.000000,373158.562500,63.000000,1.000000
440552.22999146,4464132.27000610,5.21000004,0,223,31,3.000000,28.000000,373158.562500,63.000000,1.000000
440549.96998169,4464133.05000488,4.65999985,0,199,55,3.000000,30.000000,373158.562500,63.000000,1.000000
440547.18998291,4464126.61000244,4.98999977,0,213,41,3.000000,17.000000,373158.656250,63.000000,1.000000
440544.75999023,4464130.06999390,6.23999977,12,255,0,3.000000,19.000000,373158.656250,63.000000,1.000000
440551.57999756,4464131.28000061,5.46000004,0,234,20,3.000000,28.000000,373158.656250,63.000000,1.000000
440551.56998779,4464131.52000610,5.32000017,0,228,26,3.000000,12.000000,373158.656250,63.000000,1.000000
440549.13999512,4464133.16000549,6.26000023,13,255,0,3.000000,14.000000,373158.656250,63.000000,1.000000
440549.16999390,4464133.64000122,5.55000019,0,237,17,3.000000,30.000000,373158.656250,63.000000,1.000000
440546.65000488,4464127.42000000,6.28000021,14,255,0,3.000000,17.000000,373158.750000,63.000000,1.000000
440544.34000732,4464129.89999573,5.48000002,0,234,20,3.000000,3.000000,373158.750000,63.000000,1.000000
440551.06000854,4464131.33999817,6.09000015,5,255,0,3.000000,28.000000,373158.750000,63.000000,1.000000
440546.49000122,4464132.17999451,6.57999992,26,255,0,3.000000,17.000000,373158.750000,100.000000,1.000000
440546.49998047,4464132.78000061,6.11999989,7,255,0,3.000000,1.000000,373158.750000,63.000000,1.000000
440550.71998169,4464127.61000244,6.57999992,26,255,0,3.000000,28.000000,373158.875000,63.000000,1.000000
440543.88999512,4464129.38000671,5.05000019,0,216,38,3.000000,19.000000,373158.875000,63.000000,1.000000
440546.02000000,4464132.92999451,6.32000017,15,255,0,3.000000,17.000000,373158.875000,63.000000,1.000000
440548.24000122,4464133.52000610,5.88999987,0,252,2,3.000000,30.000000,373158.875000,63.000000,1.000000
440550.47999146,4464127.53999512,6.59000015,27,255,0,3.000000,28.000000,373158.968750,63.000000,1.000000
440545.88999512,4464128.17000000,6.63999987,29,255,0,3.000000,1.000000,373158.968750,63.000000,1.000000
440545.77000000,4464132.44000427,5.78000021,0,247,7,3.000000,17.000000,373158.968750,63.000000,1.000000
440548.13999512,4464132.50000183,4.76000023,0,204,50,3.000000,14.000000,373158.968750,63.000000,1.000000
440550.41999390,4464133.14999573,4.78999996,0,204,50,3.000000,28.000000,373158.968750,63.000000,1.000000
440545.43000366,4464130.13000671,6.07000017,5,255,0,3.000000,17.000000,373159.062500,63.000000,1.000000
440543.22999146,4464130.81999390,4.80999994,0,206,48,3.000000,3.000000,373159.062500,63.000000,1.000000
440543.22999146,4464130.97000305,4.69999981,0,201,53,3.000000,19.000000,373159.062500,63.000000,1.000000
440551.85999634,4464128.64000122,5.15000010,0,220,34,3.000000,10.000000,373159.156250,63.000000,1.000000
440551.68000366,4464130.66000549,5.53999996,0,237,17,3.000000,10.000000,373159.156250,63.000000,1.000000
440547.15000488,4464131.30000488,4.82999992,0,207,47,3.000000,14.000000,373159.156250,63.000000,1.000000
440546.93998291,4464132.00999634,6.67000008,30,255,0,3.000000,30.000000,373159.156250,63.000000,1.000000
440551.63999512,4464132.14999573,5.36000013,0,229,25,3.000000,26.000000,373159.156250,63.000000,1.000000
440546.94999268,4464133.02000610,5.94000006,0,255,0,3.000000,14.000000,373159.156250,63.000000,1.000000
440549.00999023,4464126.55000488,6.36999989,17,255,0,3.000000,28.000000,373159.250000,63.000000,1.000000
440551.03998901,4464130.05000488,6.51000023,23,255,0,3.000000,26.000000,373159.250000,63.000000,1.000000
440551.03998901,4464130.28999512,6.38000011,18,255,0,3.000000,10.000000,373159.250000,63.000000,1.000000
440544.21998169,4464131.36999695,5.57000017,0,238,16,3.000000,1.000000,373159.250000,63.000000,1.000000
440546.54999878,4464132.30999939,5.03000021,0,215,39,3.000000,30.000000,373159.250000,63.000000,1.000000
440546.21998169,4464127.94999878,6.59999990,27,255,0,3.000000,30.000000,373159.375000,63.000000,1.000000
440548.56998779,4464131.17999451,4.50000000,0,192,62,3.000000,28.000000,373159.375000,63.000000,1.000000
440546.03000977,4464132.36999695,6.32000017,15,255,0,3.000000,14.000000,373159.375000,63.000000,1.000000
440545.99998047,4464133.00000183,6.26999998,13,255,0,3.000000,30.000000,373159.375000,63.000000,1.000000
440550.72999146,4464133.00999634,4.98000002,0,213,41,3.000000,10.000000,373159.375000,63.000000,1.000000
440548.00999023,4464126.99000732,6.05000019,4,255,0,3.000000,12.000000,373159.468750,63.000000,1.000000
440545.69999268,4464127.33999817,5.67999983,0,243,11,3.000000,14.000000,373159.468750,63.000000,1.000000
440552.52000000,4464130.03000061,5.65000010,0,242,12,3.000000,24.000000,373159.468750,63.000000,1.000000
440543.34000732,4464130.25999634,4.59999990,0,197,57,3.000000,1.000000,373159.468750,63.000000,1.000000
440552.63999512,4464131.16000549,4.59000015,0,196,58,3.000000,24.000000,373159.468750,63.000000,1.000000
440545.46998169,4464131.67999451,4.96999979,0,213,41,3.000000,14.000000,373159.468750,63.000000,1.000000
440547.59998657,4464132.58000366,6.59000015,27,255,0,3.000000,28.000000,373159.468750,63.000000,1.000000
440545.02000000,4464127.80000488,5.82999992,0,249,5,3.000000,14.000000,373159.562500,63.000000,1.000000
440545.02000000,4464128.36999695,5.30000019,0,227,27,3.000000,30.000000,373159.562500,63.000000,1.000000
440551.93000366,4464129.02000610,5.61999989,0,240,14,3.000000,24.000000,373159.562500,63.000000,1.000000
440544.85999634,4464129.64999573,6.23000002,11,255,0,3.000000,30.000000,373159.562500,63.000000,1.000000
440544.82999756,4464130.00000183,6.40000010,19,255,0,3.000000,14.000000,373159.562500,63.000000,1.000000
440551.78000977,4464132.02000610,5.30000019,0,227,27,3.000000,8.000000,373159.562500,63.000000,1.000000
440549.21998169,4464132.89000122,6.11999989,7,255,0,3.000000,26.000000,373159.562500,63.000000,1.000000
440551.02000000,4464130.78999512,5.94999981,0,255,0,3.000000,8.000000,373159.656250,63.000000,1.000000
440544.13999512,4464131.28000061,5.17000008,0,221,33,3.000000,30.000000,373159.656250,63.000000,1.000000
440548.56998779,4464131.83000366,6.55999994,26,255,0,3.000000,10.000000,373159.656250,63.000000,1.000000
440548.56000854,4464132.22999756,6.36000013,17,255,0,3.000000,10.000000,373159.656250,63.000000,1.000000
440546.34000732,4464132.52000610,6.00000000,2,255,0,3.000000,12.000000,373159.656250,63.000000,1.000000
440548.56000854,4464133.22999756,5.86999989,0,251,3,3.000000,26.000000,373159.656250,63.000000,1.000000
440548.31998779,4464126.94999878,6.59000015,27,255,0,3.000000,10.000000,373159.750000,63.000000,1.000000
440545.71000244,4464130.58999817,6.26999998,13,255,0,3.000000,28.000000,373159.750000,63.000000,1.000000
440543.57999756,4464131.39000122,4.63000011,0,198,56,3.000000,30.000000,373159.750000,63.000000,1.000000
440545.77000000,4464133.14999573,5.03000021,0,215,39,3.000000,12.000000,373159.750000,63.000000,1.000000
440545.62000610,4464128.28999512,6.42000008,20,255,0,3.000000,12.000000,373159.875000,63.000000,1.000000
440545.49000122,4464130.64999573,5.88000011,0,252,2,3.000000,12.000000,373159.875000,63.000000,1.000000
440547.85999634,4464126.44999878,5.84000015,0,250,4,3.000000,10.000000,373159.968750,63.000000,1.000000
440549.72999146,4464133.53000061,5.26000023,0,225,29,3.000000,8.000000,373159.968750,63.000000,1.000000
440544.81000854,4464128.27000610,6.28000021,14,255,0,3.000000,28.000000,373160.062500,63.000000,1.000000
440546.81000854,4464126.75999634,5.32999992,0,228,26,3.000000,26.000000,373160.156250,63.000000,1.000000
440550.99998047,4464130.59999268,6.25000000,12,255,0,3.000000,22.000000,373160.156250,63.000000,1.000000
440544.03998901,4464130.95999329,5.84000015,0,250,4,3.000000,28.000000,373160.156250,63.000000,1.000000
440546.27000000,4464132.33000366,6.15000010,8,255,0,3.000000,26.000000,373160.156250,63.000000,1.000000
440545.90000488,4464130.83999817,6.44999981,21,255,0,3.000000,10.000000,373160.250000,63.000000,1.000000
440548.15000488,4464133.00999634,5.96999979,0,255,0,3.000000,8.000000,373160.250000,63.000000,1.000000
440545.54999878,4464130.78000061,5.90000010,0,252,2,3.000000,10.000000,373160.375000,63.000000,1.000000
440545.49000122,4464131.69000427,5.65999985,0,242,12,3.000000,10.000000,373160.375000,63.000000,1.000000
440550.43000366,4464133.16000549,4.78999996,0,204,50,3.000000,6.000000,373160.375000,63.000000,1.000000
440545.29999878,4464128.39000122,6.21000004,11,255,0,3.000000,10.000000,373160.468750,63.000000,1.000000
440545.24998047,4464128.89999573,6.30000019,14,255,0,3.000000,10.000000,373160.468750,63.000000,1.000000
440545.15998413,4464129.19999878,6.55000019,26,255,0,3.000000,26.000000,373160.468750,63.000000,1.000000
440545.12998535,4464129.64000122,6.46000004,21,255,0,3.000000,26.000000,373160.468750,63.000000,1.000000
440545.09000732,4464131.78999512,5.23999977,0,224,30,3.000000,26.000000,373160.468750,63.000000,1.000000
440547.56998779,4464126.25999634,5.53999996,0,237,17,3.000000,24.000000,373160.562500,63.000000,1.000000
440544.87998535,4464129.14000122,5.59000015,0,239,15,3.000000,10.000000,373160.562500,63.000000,1.000000
440551.90000488,4464130.83999817,5.73000002,0,245,9,3.000000,20.000000,373160.562500,58.000000,1.000000
440544.62998535,4464131.19999878,5.65000010,0,242,12,3.000000,10.000000,373160.562500,63.000000,1.000000
440551.93998291,4464131.47000305,5.34999990,0,229,25,3.000000,4.000000,373160.562500,58.000000,1.000000
440544.28998901,4464129.19000427,6.00000000,2,255,0,3.000000,10.000000,373160.656250,63.000000,1.000000
440548.93998291,4464131.02000610,5.69000006,0,243,11,3.000000,6.000000,373160.656250,63.000000,1.000000
440546.29999878,4464132.75999634,6.38999987,18,255,0,3.000000,24.000000,373160.656250,63.000000,1.000000
440543.97999146,4464129.94999878,5.59000015,0,239,15,3.000000,10.000000,373160.750000,63.000000,1.000000
440546.07999756,4464130.47999756,6.50000000,23,255,0,3.000000,24.000000,373160.750000,63.000000,1.000000
440545.59000732,4464131.28000061,5.80999994,0,249,5,3.000000,24.000000,373160.875000,63.000000,1.000000
440543.53000977,4464131.25000183,4.63999987,0,198,56,3.000000,26.000000,373160.875000,63.000000,1.000000
440547.82999756,4464132.52000610,6.44999981,21,255,0,3.000000,6.000000,373160.875000,63.000000,1.000000
440547.78998901,4464133.14999573,6.36999989,17,255,0,3.000000,22.000000,373160.875000,63.000000,1.000000
440545.27000000,4464127.84999268,6.65000010,29,255,0,3.000000,24.000000,373160.968750,63.000000,1.000000
440543.02000000,4464130.38000671,4.48000002,0,192,62,3.000000,10.000000,373160.968750,63.000000,1.000000
440544.78000977,4464128.14000122,6.36000013,17,255,0,3.000000,24.000000,373161.062500,63.000000,1.000000
440552.18998291,4464128.83999817,5.57000017,0,238,16,3.000000,2.000000,373161.062500,100.000000,1.000000
440552.03998901,4464131.11999695,5.28999996,0,226,28,3.000000,2.000000,373161.062500,100.000000,1.000000
440544.28998901,4464129.31999390,5.84000015,0,250,4,3.000000,24.000000,373161.156250,63.000000,1.000000
440546.34998657,4464130.80999939,6.48000002,23,255,0,3.000000,6.000000,373161.156250,63.000000,1.000000
440546.38999512,4464133.30000488,5.48999977,0,235,19,3.000000,6.000000,373161.156250,63.000000,1.000000
440548.62000610,4464133.67000000,5.84999990,0,250,4,3.000000,20.000000,373161.156250,59.000000,1.000000
440549.27000000,4464127.14000122,4.82000017,0,206,48,3.000000,4.000000,373161.250000,57.000000,1.000000
440548.75999023,4464126.00000183,5.61999989,0,240,14,3.000000,20.000000,373161.375000,57.000000,1.000000
440546.50999023,4464126.31999390,4.48000002,0,192,62,3.000000,6.000000,373161.375000,63.000000,1.000000
440543.74000122,4464128.97999756,4.48999977,0,192,62,3.000000,24.000000,373161.375000,63.000000,1.000000
440552.84998657,4464130.52000610,4.67000008,0,200,54,3.000000,0.000000,373161.468750,63.000000,1.000000
440542.90998413,4464130.72999756,4.61000013,0,197,57,3.000000,8.000000,373161.468750,63.000000,1.000000
440552.59000732,4464129.11999695,4.59999990,0,197,57,3.000000,16.000000,373161.562500,63.000000,1.000000
440547.06000854,4464130.27000610,5.78000021,0,247,7,3.000000,20.000000,373161.562500,58.000000,1.000000
440552.22999146,4464131.58999817,4.80000019,0,205,49,3.000000,16.000000,373161.562500,63.000000,1.000000
440546.43000366,4464127.89000122,6.61999989,29,255,0,3.000000,4.000000,373161.656250,58.000000,1.000000
440544.21998169,4464127.94000427,5.59000015,0,239,15,3.000000,6.000000,373161.656250,63.000000,1.000000
440546.06000854,4464130.33000366,6.51999998,24,255,0,3.000000,4.000000,373161.656250,59.000000,1.000000
440551.24000122,4464131.99000732,5.38999987,0,231,23,3.000000,0.000000,373161.656250,63.000000,1.000000
440545.88999512,4464133.00000183,6.30999994,15,255,0,3.000000,4.000000,373161.656250,59.000000,1.000000
440548.29999878,4464133.53000061,5.96999979,0,255,0,3.000000,2.000000,373161.656250,100.000000,1.000000
440545.35999634,4464130.38000671,5.94000006,0,255,0,3.000000,20.000000,373161.750000,59.000000,1.000000
440545.34998657,4464131.88000671,5.09000015,0,218,36,3.000000,4.000000,373161.750000,59.000000,1.000000
440545.31998779,4464132.31999390,5.23999977,0,224,30,3.000000,4.000000,373161.750000,59.000000,1.000000
440548.15998413,4464126.77000610,6.21000004,11,255,0,3.000000,18.000000,373161.875000,100.000000,1.000000
440545.13999512,4464129.22999756,6.51999998,24,255,0,3.000000,4.000000,373161.875000,59.000000,1.000000
440543.04999878,4464130.64999573,4.65999985,0,199,55,3.000000,22.000000,373161.875000,63.000000,1.000000
440544.40000488,4464129.53000061,5.88000011,0,252,2,3.000000,20.000000,373162.062500,58.000000,1.000000
440544.06000854,4464129.92999451,5.63000011,0,241,13,3.000000,20.000000,373162.156250,58.000000,1.000000
440546.19999268,4464127.42999451,6.40999985,19,255,0,3.000000,2.000000,373162.250000,100.000000,1.000000
440544.06000854,4464128.42999451,4.51000023,0,192,62,3.000000,20.000000,373162.250000,57.000000,1.000000
440548.68998291,4464130.99000732,4.98000002,0,213,41,3.000000,0.000000,373162.250000,63.000000,1.000000
440543.18000366,4464130.77000610,4.78000021,0,204,50,3.000000,4.000000,373162.375000,58.000000,1.000000
440547.66999390,4464133.20999329,5.53999996,0,237,17,3.000000,16.000000,373162.375000,63.000000,1.000000
440547.66999390,4464126.11999695,5.40000010,0,231,23,3.000000,0.000000,373162.562500,63.000000,1.000000
440546.28000977,4464132.99000732,6.38000011,18,255,0,3.000000,16.000000,373162.562500,63.000000,1.000000
440546.90998413,4464129.17999451,4.46999979,0,191,63,3.000000,16.000000,373162.656250,63.000000,1.000000
440545.93998291,4464133.61000244,5.38000011,0,230,24,3.000000,0.000000,373162.656250,63.000000,1.000000
440545.38999512,4464130.08999817,6.15000010,8,255,0,3.000000,16.000000,373162.750000,63.000000,1.000000
440545.82999756,4464126.88000671,5.44999981,0,233,21,3.000000,16.000000,373162.875000,63.000000,1.000000
440544.54999878,4464128.86000244,6.17000008,9,255,0,3.000000,16.000000,373162.968750,63.000000,1.000000
440544.37000610,4464129.42999451,6.32999992,16,255,0,3.000000,16.000000,373162.968750,63.000000,1.000000
440544.49998047,4464129.58000366,5.88000011,0,252,2,3.000000,0.000000,373162.968750,63.000000,1.000000
440544.43000366,4464131.77000610,4.51999998,0,193,61,3.000000,0.000000,373162.968750,63.000000,1.000000
440543.93998291,4464129.75999634,5.67999983,0,243,11,3.000000,0.000000,373163.062500,63.000000,1.000000
440545.32999756,4464130.63000671,6.05999994,4,255,0,4.000000,15.000000,373245.125000,63.000000,1.000000
440542.90998413,4464130.30000488,4.46000004,0,191,63,4.000000,29.000000,373245.125000,51.000000,1.000000
440544.79999878,4464127.92000000,5.78000021,0,247,7,4.000000,15.000000,373245.125000,63.000000,1.000000
440545.24000122,4464127.03999512,5.17000008,0,221,33,4.000000,15.000000,373245.218750,63.000000,1.000000
440543.79999878,4464129.69000427,5.44999981,0,233,21,4.000000,29.000000,373245.312500,52.000000,1.000000
440543.96000244,4464128.08000366,5.55000019,0,237,17,4.000000,29.000000,373245.406250,52.000000,1.000000
440545.46000244,4464132.31999390,5.80999994,0,249,5,4.000000,13.000000,373245.500000,51.000000,1.000000
440544.74000122,4464129.42999451,6.05000019,4,255,0,4.000000,29.000000,373245.500000,52.000000,1.000000
440544.54999878,4464128.92999451,6.46999979,22,255,0,4.000000,13.000000,373245.500000,53.000000,1.000000
440544.43998291,4464127.83999817,5.65999985,0,242,12,4.000000,13.000000,373245.500000,52.000000,1.000000
440547.09000732,4464127.41000549,5.07999992,0,217,37,4.000000,31.000000,373245.500000,63.000000,1.000000
440546.10999634,4464132.92999451,6.17000008,9,255,0,4.000000,29.000000,373245.625000,50.000000,1.000000
440545.06998779,4464129.39000122,6.55000019,26,255,0,4.000000,13.000000,373245.625000,53.000000,1.000000
440543.65998413,4464130.72000305,5.13000011,0,219,35,4.000000,11.000000,373245.718750,63.000000,1.000000
440545.50999023,4464128.47000305,6.50000000,23,255,0,4.000000,13.000000,373245.718750,53.000000,1.000000
440545.34998657,4464126.97000305,5.40000010,0,231,23,4.000000,13.000000,373245.718750,53.000000,1.000000
440548.37000610,4464133.44000427,5.78999996,0,248,6,4.000000,29.000000,373245.906250,50.000000,1.000000
440545.12998535,4464131.58000366,5.55000019,0,237,17,4.000000,11.000000,373245.906250,63.000000,1.000000
440544.31998779,4464128.27000610,6.40000010,19,255,0,4.000000,11.000000,373245.906250,63.000000,1.000000
440547.24000122,4464127.44000427,6.67999983,31,255,0,4.000000,13.000000,373246.000000,53.000000,1.000000
440546.28000977,4464131.91000549,6.03999996,3,255,0,4.000000,27.000000,373246.125000,63.000000,1.000000
440545.91999390,4464130.75000183,6.59999990,27,255,0,4.000000,11.000000,373246.125000,63.000000,1.000000
440548.47999146,4464129.05999939,4.55000019,0,195,59,4.000000,29.000000,373246.125000,51.000000,1.000000
440547.66999390,4464126.61999695,5.65000010,0,242,12,4.000000,13.000000,373246.125000,53.000000,1.000000
440545.15000488,4464126.70999329,5.23000002,0,224,30,4.000000,11.000000,373246.125000,63.000000,1.000000
440546.96000244,4464132.75999634,6.40999985,19,255,0,4.000000,27.000000,373246.218750,63.000000,1.000000
440543.84000732,4464130.64000122,5.94999981,0,255,0,4.000000,9.000000,373246.218750,63.000000,1.000000
440543.79999878,4464130.30000488,5.53999996,0,237,17,4.000000,9.000000,373246.218750,63.000000,1.000000
440545.85999634,4464127.55000488,5.26999998,0,225,29,4.000000,11.000000,373246.218750,63.000000,1.000000
440545.07999756,4464132.78999512,4.67000008,0,200,54,4.000000,9.000000,373246.312500,63.000000,1.000000
440544.74998047,4464131.75000183,5.34000015,0,228,26,4.000000,9.000000,373246.312500,63.000000,1.000000
440544.31000854,4464129.92000000,6.21999979,11,255,0,4.000000,9.000000,373246.312500,63.000000,1.000000
440546.37998535,4464126.99000732,4.92999983,0,211,43,4.000000,11.000000,373246.312500,63.000000,1.000000
440548.07999756,4464132.56999390,6.48999977,23,255,0,4.000000,11.000000,373246.406250,63.000000,1.000000
440547.15000488,4464128.47999756,6.03000021,3,255,0,4.000000,11.000000,373246.406250,63.000000,1.000000
440549.74998047,4464127.74000732,4.94000006,0,211,43,4.000000,29.000000,373246.406250,52.000000,1.000000
440544.47999146,4464127.38000671,4.69000006,0,201,53,4.000000,9.000000,373246.406250,63.000000,1.000000
440546.88999512,4464126.67000000,4.78000021,0,204,50,4.000000,27.000000,373246.406250,63.000000,1.000000
440547.28000977,4464127.42000000,6.38999987,18,255,0,4.000000,27.000000,373246.500000,63.000000,1.000000
440550.02000000,4464127.27000610,5.17000008,0,221,33,4.000000,13.000000,373246.500000,52.000000,1.000000
440546.38999512,4464133.06999390,6.25000000,12,255,0,4.000000,9.000000,373246.625000,63.000000,1.000000
440551.44999268,4464131.36000244,5.11999989,0,219,35,4.000000,29.000000,373246.625000,50.000000,1.000000
440550.72999146,4464129.61999695,6.67000008,30,255,0,4.000000,13.000000,373246.625000,52.000000,1.000000
440546.41999390,4464130.92000000,6.67000008,30,255,0,4.000000,9.000000,373246.718750,63.000000,1.000000
440551.47999146,4464129.24000732,4.98999977,0,213,41,4.000000,13.000000,373246.718750,51.000000,1.000000
440545.81998779,4464127.17000000,4.76000023,0,204,50,4.000000,9.000000,373246.718750,63.000000,1.000000
440544.09998657,4464129.39999573,5.88999987,0,252,2,4.000000,23.000000,373246.812500,63.000000,1.000000
440551.56998779,4464127.83999817,5.40000010,0,231,23,4.000000,29.000000,373246.812500,52.000000,1.000000
440548.56000854,4464126.56999390,6.17999983,9,255,0,4.000000,11.000000,373246.812500,63.000000,1.000000
440548.60999634,4464126.25999634,5.23000002,0,224,30,4.000000,27.000000,373246.812500,63.000000,1.000000
440548.93998291,4464127.03000061,6.17000008,9,255,0,4.000000,11.000000,373246.906250,63.000000,1.000000
440548.93000366,4464126.88000671,6.15000010,8,255,0,4.000000,27.000000,373246.906250,63.000000,1.000000
440548.34998657,4464133.44999878,5.84999990,0,250,4,4.000000,25.000000,373247.000000,63.000000,1.000000
440545.40998413,4464132.05999939,6.01000023,2,255,0,4.000000,7.000000,373247.000000,63.000000,1.000000
440545.37000610,4464131.88000671,5.69999981,0,244,10,4.000000,23.000000,373247.000000,63.000000,1.000000
440545.00999023,4464130.14999573,5.98000002,1,255,0,4.000000,23.000000,373247.000000,63.000000,1.000000
440544.62000610,4464127.69999878,5.15000010,0,220,34,4.000000,23.000000,373247.000000,63.000000,1.000000
440548.59998657,4464131.94000427,6.61000013,28,255,0,4.000000,25.000000,373247.125000,63.000000,1.000000
440545.71998169,4464130.42000000,5.96999979,0,255,0,4.000000,7.000000,373247.125000,63.000000,1.000000
440550.27000000,4464127.97000305,6.57999992,26,255,0,4.000000,11.000000,373247.125000,63.000000,1.000000
440545.21000244,4464127.50999634,5.67000008,0,243,11,4.000000,23.000000,373247.125000,63.000000,1.000000
440547.41999390,4464125.92000000,5.21999979,0,223,31,4.000000,9.000000,373247.125000,63.000000,1.000000
440552.00999023,4464132.02000610,4.86000013,0,208,46,4.000000,27.000000,373247.218750,63.000000,1.000000
440548.00999023,4464126.28999512,5.65000010,0,242,12,4.000000,9.000000,373247.218750,63.000000,1.000000
440544.93998291,4464132.58999817,4.78000021,0,204,50,4.000000,21.000000,373247.312500,63.000000,1.000000
440544.52000000,4464130.59999268,5.90999985,0,253,1,4.000000,5.000000,373247.312500,63.000000,1.000000
440544.09998657,4464128.19000427,5.69999981,0,244,10,4.000000,5.000000,373247.312500,63.000000,1.000000
440550.60999634,4464131.41000549,6.05999994,4,255,0,4.000000,25.000000,373247.406250,63.000000,1.000000
440543.60999634,4464131.66000549,4.73999977,0,203,51,4.000000,19.000000,373247.500000,63.000000,1.000000
440545.47999146,4464128.27000610,6.42000008,20,255,0,4.000000,21.000000,373247.531250,63.000000,1.000000
440545.34998657,4464127.22999756,5.55999994,0,238,16,4.000000,21.000000,373247.531250,63.000000,1.000000
440543.79999878,4464129.84999268,5.59999990,0,240,14,4.000000,19.000000,373247.625000,63.000000,1.000000
440543.78000977,4464129.66000549,5.17000008,0,221,33,4.000000,3.000000,373247.625000,63.000000,1.000000
440550.90998413,4464127.75999634,6.28000021,14,255,0,4.000000,25.000000,373247.625000,63.000000,1.000000
440545.87000610,4464127.24000732,4.82000017,0,206,48,4.000000,21.000000,373247.625000,63.000000,1.000000
440548.13999512,4464126.16000549,5.53000021,0,237,17,4.000000,7.000000,373247.625000,63.000000,1.000000
440548.15998413,4464126.16000549,5.07000017,0,217,37,4.000000,23.000000,373247.625000,63.000000,1.000000
440551.72999146,4464129.67999451,5.15000010,0,220,34,4.000000,9.000000,373247.718750,63.000000,1.000000
440546.18000366,4464127.53999512,6.17000008,9,255,0,4.000000,5.000000,373247.718750,63.000000,1.000000
440546.15000488,4464127.33999817,6.13000011,7,255,0,4.000000,21.000000,373247.718750,63.000000,1.000000
440548.47999146,4464126.59999268,6.21000004,11,255,0,4.000000,7.000000,373247.718750,63.000000,1.000000
440544.15998413,4464128.22000305,6.05999994,4,255,0,4.000000,3.000000,373247.812500,63.000000,1.000000
440548.90998413,4464127.11000244,6.19000006,10,255,0,4.000000,23.000000,373247.812500,63.000000,1.000000
440545.16999390,4464131.80999939,5.67000008,0,243,11,4.000000,19.000000,373247.906250,63.000000,1.000000
440545.02000000,4464130.84999268,5.96000004,0,255,0,4.000000,3.000000,373247.906250,63.000000,1.000000
440544.44999268,4464127.52000610,4.71000004,0,201,53,4.000000,3.000000,373247.906250,63.000000,1.000000
440545.87998535,4464133.20999329,6.38000011,18,255,0,4.000000,19.000000,373248.031250,63.000000,1.000000
440547.47999146,4464127.80000488,4.63999987,0,198,56,4.000000,5.000000,373248.031250,63.000000,1.000000
440547.19999268,4464126.39000122,5.40999985,0,231,23,4.000000,5.000000,373248.031250,63.000000,1.000000
440546.03000977,4464131.25000183,6.23999977,12,255,0,4.000000,3.000000,373248.125000,63.000000,1.000000
440547.75999023,4464126.86000244,5.88999987,0,252,2,4.000000,5.000000,373248.125000,63.000000,1.000000
440547.65998413,4464126.28000061,5.55000019,0,237,17,4.000000,21.000000,373248.125000,63.000000,1.000000
440544.13999512,4464131.24000732,5.57999992,0,239,15,4.000000,17.000000,373248.218750,63.000000,1.000000
440548.34998657,4464126.78000061,6.48999977,23,255,0,4.000000,5.000000,373248.218750,63.000000,1.000000
440548.28000977,4464126.14999573,5.13000011,0,219,35,4.000000,21.000000,373248.218750,63.000000,1.000000
440544.75999023,4464130.91000549,6.21999979,11,255,0,4.000000,1.000000,373248.312500,63.000000,1.000000
440544.56998779,4464129.72999756,6.30000019,14,255,0,4.000000,17.000000,373248.312500,63.000000,1.000000
440544.34000732,4464128.20999329,5.63999987,0,241,13,4.000000,1.000000,373248.312500,63.000000,1.000000
440544.21000244,4464127.67000000,4.65999985,0,199,55,4.000000,1.000000,373248.312500,63.000000,1.000000
440549.62000610,4464127.08999817,5.11000013,0,219,35,4.000000,21.000000,373248.406250,63.000000,1.000000
440544.65000488,4464127.22999756,4.90999985,0,210,44,4.000000,1.000000,373248.406250,63.000000,1.000000
440543.03998901,4464130.25000183,4.63000011,0,198,56,4.000000,30.000000,373248.531250,63.000000,1.000000
440551.63999512,4464132.27000610,5.15000010,0,220,34,4.000000,5.000000,373248.625000,63.000000,1.000000
440543.77000000,4464130.47000305,6.19000006,10,255,0,4.000000,14.000000,373248.625000,63.000000,1.000000
440543.74000122,4464130.41000549,5.88999987,0,252,2,4.000000,30.000000,373248.625000,63.000000,1.000000
440543.69999268,4464130.49000732,5.11999989,0,219,35,4.000000,14.000000,373248.625000,63.000000,1.000000
440543.66999390,4464130.00000183,5.42000008,0,232,22,4.000000,30.000000,373248.625000,63.000000,1.000000
440543.59998657,4464129.83000366,4.69999981,0,201,53,4.000000,30.000000,373248.625000,63.000000,1.000000
440544.37998535,4464127.81999390,5.28000021,0,226,28,4.000000,30.000000,373248.718750,63.000000,1.000000
440550.34000732,4464128.05000488,6.59999990,27,255,0,4.000000,3.000000,373248.812500,63.000000,1.000000
440543.93000366,4464130.33999817,5.80000019,0,248,6,4.000000,28.000000,373248.906250,63.000000,1.000000
440543.90000488,4464130.14000122,5.59000015,0,239,15,4.000000,12.000000,373248.906250,63.000000,1.000000
440551.91999390,4464131.74000732,5.01000023,0,214,40,4.000000,3.000000,373249.031250,63.000000,1.000000
440551.65000488,4464130.14999573,5.69999981,0,244,10,4.000000,3.000000,373249.031250,63.000000,1.000000
440544.21000244,4464130.66000549,5.36999989,0,230,24,4.000000,12.000000,373249.031250,63.000000,1.000000
440548.91999390,4464128.84999268,5.01000023,0,214,40,4.000000,1.000000,373249.031250,63.000000,1.000000
440546.12998535,4464126.88000671,4.55000019,0,195,59,4.000000,30.000000,373249.031250,63.000000,1.000000
440546.09998657,4464126.58999817,4.46000004,0,191,63,4.000000,14.000000,373249.031250,63.000000,1.000000
440546.06000854,4464126.34999268,4.50000000,0,192,62,4.000000,30.000000,373249.031250,63.000000,1.000000
440551.63999512,4464130.89999573,5.69999981,0,244,10,4.000000,19.000000,373249.125000,63.000000,1.000000
440543.91999390,4464129.30999939,6.00000000,2,255,0,4.000000,12.000000,373249.125000,63.000000,1.000000
440548.44999268,4464126.53000061,6.30000019,14,255,0,4.000000,1.000000,373249.125000,63.000000,1.000000
440551.40998413,4464132.17999451,5.00000000,0,214,40,4.000000,3.000000,373249.218750,63.000000,1.000000
440547.96000244,4464126.63000671,4.53999996,0,194,60,4.000000,17.000000,373249.218750,63.000000,1.000000
440543.56998779,4464131.89999573,4.71999979,0,201,53,4.000000,28.000000,373249.312500,63.000000,1.000000
440550.49998047,4464127.36999695,6.32000017,15,255,0,4.000000,19.000000,373249.312500,63.000000,1.000000
440547.99000122,4464126.94000427,6.46000004,21,255,0,4.000000,1.000000,373249.312500,63.000000,1.000000
440543.63999512,4464129.52000610,4.84999990,0,207,47,4.000000,28.000000,373249.406250,63.000000,1.000000
440546.78998901,4464126.56999390,4.88999987,0,209,45,4.000000,14.000000,373249.531250,63.000000,1.000000
440543.37998535,4464130.94000427,4.80999994,0,206,48,4.000000,10.000000,373249.625000,63.000000,1.000000
440550.62000610,4464128.06999390,6.34000015,16,255,0,4.000000,1.000000,373249.625000,63.000000,1.000000
440545.47999146,4464126.89000122,5.25000000,0,225,29,4.000000,28.000000,373249.625000,63.000000,1.000000
440551.49998047,4464127.75000183,5.30999994,0,227,27,4.000000,1.000000,373249.718750,63.000000,1.000000
440548.90998413,4464126.44000427,6.36999989,17,255,0,4.000000,14.000000,373249.718750,63.000000,1.000000
440546.43000366,4464126.89999573,5.09999990,0,218,36,4.000000,12.000000,373249.718750,63.000000,1.000000
440552.03998901,4464127.61000244,4.48000002,0,192,62,4.000000,17.000000,373249.812500,63.000000,1.000000
440547.03000977,4464127.28999512,4.76999998,0,204,50,4.000000,12.000000,373249.812500,63.000000,1.000000
440546.96998169,4464126.81999390,4.65000010,0,198,56,4.000000,12.000000,373249.812500,63.000000,1.000000
440545.85999634,4464132.41000549,6.32999992,16,255,0,4.000000,26.000000,373249.906250,63.000000,1.000000
440547.62998535,4464126.44999878,5.51000023,0,236,18,4.000000,28.000000,373249.906250,63.000000,1.000000
440551.28000977,4464131.42999451,5.34999990,0,229,25,4.000000,14.000000,373250.031250,63.000000,1.000000
440548.21000244,4464126.70999329,5.40999985,0,231,23,4.000000,28.000000,373250.031250,63.000000,1.000000
440551.90000488,4464130.33999817,5.65000010,0,242,12,4.000000,14.000000,373250.125000,63.000000,1.000000
440544.34998657,4464128.74000732,6.51000023,23,255,0,4.000000,24.000000,373250.125000,63.000000,1.000000
440551.49998047,4464127.61000244,5.26000023,0,225,29,4.000000,30.000000,373250.125000,63.000000,1.000000
440552.49000122,4464130.36000244,4.67999983,0,200,54,4.000000,30.000000,373250.218750,63.000000,1.000000
440544.99000122,4464128.41000549,6.46999979,22,255,0,4.000000,24.000000,373250.218750,63.000000,1.000000
440545.49000122,4464132.14000122,6.00000000,2,255,0,4.000000,24.000000,373250.312500,63.000000,1.000000
440552.56000854,4464129.17999451,4.78000021,0,204,50,4.000000,14.000000,373250.312500,63.000000,1.000000
440547.59000732,4464128.53999512,5.78999996,0,248,6,4.000000,10.000000,373250.312500,63.000000,1.000000
440545.79999878,4464130.36999695,6.44999981,21,255,0,4.000000,8.000000,373250.406250,63.000000,1.000000
440545.78000977,4464129.72999756,6.61999989,29,255,0,4.000000,8.000000,373250.406250,63.000000,1.000000
440545.38999512,4464127.53000061,5.59000015,0,239,15,4.000000,24.000000,373250.406250,63.000000,1.000000
440545.35999634,4464127.25000183,5.51999998,0,236,18,4.000000,8.000000,373250.406250,63.000000,1.000000
440547.77000000,4464126.20999329,5.67999983,0,243,11,4.000000,10.000000,373250.406250,63.000000,1.000000
440543.99998047,4464130.58000366,5.86999989,0,251,3,4.000000,6.000000,373250.531250,63.000000,1.000000
440547.32999756,4464131.91000549,5.32999992,0,228,26,4.000000,8.000000,373250.625000,63.000000,1.000000
440545.60999634,4464133.03000061,6.11000013,6,255,0,4.000000,6.000000,373250.718750,63.000000,1.000000
440548.12000610,4464131.88000671,6.53000021,24,255,0,4.000000,8.000000,373250.718750,63.000000,1.000000
440550.53000977,4464131.69000427,5.84000015,0,250,4,4.000000,26.000000,373250.718750,63.000000,1.000000
440545.32999756,4464127.99000732,6.50000000,23,255,0,4.000000,6.000000,373250.718750,63.000000,1.000000
440545.06998779,4464127.28000061,5.32000017,0,228,26,4.000000,22.000000,373250.718750,63.000000,1.000000
440546.10999634,4464130.49000732,6.51000023,23,255,0,4.000000,22.000000,373250.812500,63.000000,1.000000
440550.96000244,4464129.70999329,5.73000002,0,245,9,4.000000,10.000000,373250.812500,63.000000,1.000000
440545.84000732,4464127.52000610,6.32000017,15,255,0,4.000000,22.000000,373250.812500,63.000000,1.000000
440551.10999634,4464131.45999329,5.36999989,0,230,24,4.000000,10.000000,373250.906250,63.000000,1.000000
440548.32999756,4464126.94000427,6.65000010,29,255,0,4.000000,8.000000,373250.906250,63.000000,1.000000
440545.74998047,4464127.69000427,5.55999994,0,238,16,4.000000,22.000000,373250.906250,63.000000,1.000000
440546.47999146,4464133.28000061,6.32999992,16,255,0,4.000000,6.000000,373251.031250,63.000000,1.000000
440546.43998291,4464131.22000305,6.59000015,27,255,0,4.000000,6.000000,373251.031250,63.000000,1.000000
440548.44999268,4464126.75999634,6.40999985,19,255,0,4.000000,8.000000,373251.031250,63.000000,1.000000
440545.75999023,4464127.33999817,5.05000019,0,216,38,4.000000,6.000000,373251.031250,63.000000,1.000000
440545.65000488,4464126.72000305,4.67999983,0,200,54,4.000000,22.000000,373251.031250,63.000000,1.000000
440543.99000122,4464129.39999573,6.01000023,2,255,0,4.000000,20.000000,373251.125000,55.000000,1.000000
440552.49000122,4464131.61999695,4.59999990,0,197,57,4.000000,26.000000,373251.218750,63.000000,1.000000
440552.28998901,4464129.28000061,5.07999992,0,217,37,4.000000,10.000000,373251.218750,63.000000,1.000000
440548.06998779,4464128.70999329,5.94000006,0,255,0,4.000000,22.000000,373251.312500,63.000000,1.000000
440546.49000122,4464129.86000244,5.82000017,0,249,5,4.000000,4.000000,373251.406250,55.000000,1.000000
440551.27000000,4464128.14999573,5.23999977,0,224,30,4.000000,8.000000,373251.406250,63.000000,1.000000
440550.56000854,4464130.58999817,6.55999994,26,255,0,4.000000,6.000000,373251.625000,63.000000,1.000000
440552.78998901,4464130.53999512,4.48999977,0,192,62,4.000000,8.000000,373251.625000,63.000000,1.000000
440549.99000122,4464127.31999390,5.23999977,0,224,30,4.000000,22.000000,373251.625000,63.000000,1.000000
440548.02000000,4464126.86999695,5.40999985,0,231,23,4.000000,4.000000,373251.718750,56.000000,1.000000
440545.47999146,4464127.13000671,5.42000008,0,232,22,4.000000,18.000000,373251.718750,100.000000,1.000000
440551.31998779,4464130.86000244,5.57999992,0,239,15,4.000000,22.000000,373251.812500,63.000000,1.000000
440551.59998657,4464130.83999817,5.65000010,0,242,12,4.000000,22.000000,373251.906250,63.000000,1.000000
440551.60999634,4464127.86999695,5.15999985,0,221,33,4.000000,22.000000,373252.031250,63.000000,1.000000
440544.02000000,4464128.19999878,5.55000019,0,237,17,4.000000,0.000000,373252.031250,63.000000,1.000000
440549.88999512,4464127.52000610,5.90000010,0,252,2,4.000000,4.000000,373252.125000,56.000000,1.000000
440550.81998779,4464131.17000000,5.98999977,1,255,0,4.000000,4.000000,373252.218750,55.000000,1.000000
440550.84998657,4464130.75000183,6.11999989,7,255,0,4.000000,20.000000,373252.218750,55.000000,1.000000
440545.68000366,4464128.47000305,6.38000011,18,255,0,4.000000,0.000000,373252.218750,63.000000,1.000000
440545.62998535,4464128.00000183,6.55000019,26,255,0,4.000000,0.000000,373252.218750,63.000000,1.000000
440548.18000366,4464127.28999512,6.65999985,30,255,0,4.000000,18.000000,373252.218750,100.000000,1.000000
440545.28998901,4464126.92999451,5.40000010,0,231,23,4.000000,0.000000,373252.218750,63.000000,1.000000
440546.10999634,4464127.97999756,6.61999989,29,255,0,4.000000,0.000000,373252.312500,63.000000,1.000000
440547.93000366,4464132.70999329,6.53999996,25,255,0,4.000000,16.000000,373252.625000,63.000000,1.000000
440548.34998657,4464126.78000061,6.30999994,15,255,0,4.000000,0.000000,373252.937500,63.000000,1.000000
440548.90998413,4464127.20999329,6.32000017,15,255,0,4.000000,0.000000,373253.031250,63.000000,1.000000
440551.32999756,4464130.86000244,5.61000013,0,240,14,4.000000,16.000000,373253.437500,63.000000,1.000000
440551.09000732,4464128.33999817,5.26000023,0,225,29,4.000000,16.000000,373253.437500,63.000000,1.000000
440551.54999878,4464128.59999268,5.11000013,0,219,35,4.000000,0.000000,373253.531250,63.000000,1.000000
440551.53998901,4464128.38000671,5.11999989,0,219,35,4.000000,16.000000,373253.531250,63.000000,1.000000
440552.09000732,4464132.00999634,4.92000008,0,210,44,4.000000,0.000000,373253.625000,63.000000,1.000000
440552.12998535,4464130.14999573,5.15000010,0,220,34,4.000000,0.000000,373253.625000,63.000000,1.000000
440552.12000610,4464129.30999939,5.09999990,0,218,36,4.000000,16.000000,373253.625000,63.000000,1.000000
440552.18000366,4464128.59999268,5.38999987,0,231,23,4.000000,16.000000,373253.625000,63.000000,1.000000
440552.43000366,4464130.72999756,4.82999992,0,207,47,4.000000,0.000000,373253.718750,63.000000,1.000000
440546.12000610,4464126.61999695,4.61000013,0,197,57,3.000000,15.000000,373155.968750,63.000000,1.000000
440546.04999878,4464126.56999390,4.65000010,0,198,56,3.000000,13.000000,373156.468750,57.000000,1.000000
440544.02000000,4464128.13000671,4.46000004,0,191,63,3.000000,27.000000,373157.250000,63.000000,1.000000
440544.21000244,4464128.53000061,4.48000002,0,192,62,3.000000,25.000000,373157.656250,63.000000,1.000000
440543.94999268,4464128.00999634,4.51000023,0,192,62,3.000000,3.000000,373158.875000,63.000000,1.000000
440543.69999268,4464128.39000122,4.48000002,0,192,62,3.000000,3.000000,373158.968750,63.000000,1.000000
440546.28000977,4464126.39000122,4.48999977,0,192,62,3.000000,28.000000,373159.750000,63.000000,1.000000
440544.09998657,4464127.70999329,4.57000017,0,195,59,3.000000,12.000000,373160.250000,63.000000,1.000000
440544.04999878,4464128.39000122,4.48000002,0,192,62,3.000000,28.000000,373160.250000,63.000000,1.000000
440546.49998047,4464126.17999451,4.48000002,0,192,62,3.000000,24.000000,373160.875000,63.000000,1.000000
440544.24000122,4464128.45999329,4.50000000,0,192,62,3.000000,8.000000,373161.250000,63.000000,1.000000
440543.78000977,4464128.31999390,4.59000015,0,196,58,3.000000,8.000000,373161.375000,63.000000,1.000000
440546.43998291,4464126.24000732,4.53999996,0,194,60,3.000000,20.000000,373161.750000,56.000000,1.000000
440544.12998535,4464127.92999451,4.63000011,0,198,56,3.000000,20.000000,373162.250000,57.000000,1.000000
440543.84000732,4464128.28999512,4.46000004,0,191,63,3.000000,18.000000,373162.750000,100.000000,1.000000
440544.19999268,4464127.81999390,4.55000019,0,195,59,3.000000,16.000000,373163.156250,63.000000,1.000000
440544.06998779,4464128.36000244,4.51999998,0,193,61,3.000000,16.000000,373163.156250,63.000000,1.000000
440542.77000000,4464130.30999939,4.55999994,0,195,59,4.000000,31.000000,373244.625000,63.000000,1.000000
440544.31998779,4464127.53000061,4.50000000,0,192,62,4.000000,15.000000,373245.000000,63.000000,1.000000
440544.57999756,4464127.77000610,4.63999987,0,198,56,4.000000,13.000000,373245.500000,52.000000,1.000000
440544.40998413,4464127.59999268,4.57999992,0,195,59,4.000000,11.000000,373245.906250,63.000000,1.000000
440543.50999023,4464128.33999817,4.51000023,0,192,62,4.000000,9.000000,373246.218750,63.000000,1.000000
440545.84000732,4464127.14000122,4.55999994,0,195,59,4.000000,27.000000,373246.218750,63.000000,1.000000
440545.68998291,4464126.56999390,4.57000017,0,195,59,4.000000,27.000000,373246.218750,63.000000,1.000000
440543.93000366,4464127.97999756,4.59000015,0,196,58,4.000000,23.000000,373246.812500,63.000000,1.000000
440546.25999023,4464126.95999329,4.61999989,0,198,56,4.000000,25.000000,373246.812500,63.000000,1.000000
440542.65000488,4464130.58000366,4.63000011,0,198,56,4.000000,21.000000,373247.000000,63.000000,1.000000
440542.77000000,4464130.39000122,4.59999990,0,197,57,4.000000,3.000000,373247.406250,63.000000,1.000000
440545.81000854,4464126.81999390,4.51000023,0,192,62,4.000000,21.000000,373247.625000,63.000000,1.000000
440544.50999023,4464127.86000244,4.67000008,0,200,54,4.000000,19.000000,373247.906250,63.000000,1.000000
440543.68998291,4464128.55000488,4.53999996,0,194,60,4.000000,1.000000,373248.218750,63.000000,1.000000
440545.87000610,4464126.53999512,4.48999977,0,192,62,4.000000,3.000000,373248.218750,63.000000,1.000000
440545.62998535,4464126.58999817,4.55000019,0,195,59,4.000000,17.000000,373248.625000,63.000000,1.000000
440544.35999634,4464127.77000610,4.65999985,0,199,55,4.000000,14.000000,373248.718750,63.000000,1.000000
440543.43998291,4464128.42999451,4.57999992,0,195,59,4.000000,12.000000,373249.406250,63.000000,1.000000
440544.41999390,4464127.66000549,4.69999981,0,201,53,4.000000,12.000000,373249.531250,63.000000,1.000000
440543.99000122,4464127.92000000,4.57000017,0,195,59,4.000000,26.000000,373249.718750,63.000000,1.000000
440545.74998047,4464127.78999512,4.48000002,0,192,62,4.000000,10.000000,373250.031250,63.000000,1.000000
440543.96998169,4464127.84999268,4.53000021,0,194,60,4.000000,8.000000,373250.125000,63.000000,1.000000
440544.59000732,4464127.61000244,4.50000000,0,192,62,4.000000,8.000000,373250.218750,63.000000,1.000000
440543.54999878,4464128.53999512,4.59000015,0,196,58,4.000000,22.000000,373250.531250,63.000000,1.000000
440545.99000122,4464127.25999634,4.65000010,0,198,56,4.000000,8.000000,373250.531250,63.000000,1.000000
440545.91999390,4464126.56999390,4.50000000,0,192,62,4.000000,24.000000,373250.531250,63.000000,1.000000
440543.56998779,4464128.59999268,4.59999990,0,197,57,4.000000,20.000000,373251.125000,55.000000,1.000000
440545.93998291,4464126.55000488,4.46999979,0,191,63,4.000000,22.000000,373251.125000,63.000000,1.000000
440545.90000488,4464126.63000671,4.48999977,0,192,62,4.000000,20.000000,373251.437500,55.000000,1.000000
440546.12998535,4464126.67999451,4.51000023,0,192,62,4.000000,16.000000,373252.437500,63.000000,1.000000
440546.59998657,4464126.67000000,4.65000010,0,198,56,5.000000,1.000000,373284.781250,63.000000,1.000000
440551.54999878,4464131.64000122,4.57000017,0,195,59,2.000000,17.000000,373124.156250,63.000000,1.000000
440552.69999268,4464131.13000671,4.59999990,0,197,57,3.000000,29.000000,373155.062500,58.000000,1.000000
440552.72999146,4464131.61999695,4.59999990,0,197,57,3.000000,29.000000,373155.062500,58.000000,1.000000
440552.88999512,4464131.44999878,4.48999977,0,192,62,3.000000,11.000000,373155.562500,63.000000,1.000000
440552.37000610,4464131.24000732,4.57999992,0,195,59,3.000000,11.000000,373155.656250,63.000000,1.000000
440552.71998169,4464131.52000610,4.55000019,0,195,59,3.000000,9.000000,373156.062500,63.000000,1.000000
440548.10999634,4464131.58999817,4.46999979,0,191,63,3.000000,13.000000,373156.062500,58.000000,1.000000
440551.71000244,4464128.89000122,4.51999998,0,193,61,3.000000,9.000000,373156.250000,63.000000,1.000000
440552.44999268,4464131.39000122,4.59999990,0,197,57,3.000000,7.000000,373156.562500,63.000000,1.000000
440552.97999146,4464131.28000061,4.51000023,0,192,62,3.000000,5.000000,373156.875000,63.000000,1.000000
440552.37000610,4464131.02000610,4.46000004,0,191,63,3.000000,21.000000,373156.968750,63.000000,1.000000
440552.75999023,4464131.30999939,4.59999990,0,197,57,3.000000,3.000000,373157.375000,63.000000,1.000000
440552.75999023,4464131.50000183,4.59999990,0,197,57,3.000000,19.000000,373157.375000,63.000000,1.000000
440547.46998169,4464131.14000122,4.57000017,0,195,59,3.000000,23.000000,373157.468750,63.000000,1.000000
440547.82999756,4464128.53000061,4.50000000,0,192,62,3.000000,17.000000,373158.562500,63.000000,1.000000
440547.03000977,4464132.28000061,4.61000013,0,197,57,3.000000,17.000000,373158.656250,63.000000,1.000000
440547.81998779,4464130.86999695,4.46000004,0,191,63,3.000000,24.000000,373160.468750,63.000000,1.000000
440549.35999634,4464127.24000732,4.51999998,0,193,61,3.000000,20.000000,373161.250000,56.000000,1.000000
440547.90000488,4464128.44999878,4.57000017,0,195,59,3.000000,2.000000,373161.968750,100.000000,1.000000
440547.43000366,4464128.66000549,4.55000019,0,195,59,4.000000,25.000000,373247.000000,63.000000,1.000000
440548.09998657,4464126.25999634,4.59000015,0,196,58,4.000000,9.000000,373247.218750,63.000000,1.000000
440552.07999756,4464127.59999268,4.48000002,0,192,62,4.000000,25.000000,373247.906250,63.000000,1.000000
440552.49000122,4464131.27000610,4.59000015,0,196,58,4.000000,7.000000,373248.312500,63.000000,1.000000
440548.09998657,4464126.47000305,4.48000002,0,192,62,4.000000,3.000000,373248.625000,63.000000,1.000000
440547.90998413,4464126.28000061,4.59000015,0,196,58,4.000000,1.000000,373249.218750,63.000000,1.000000
440547.75999023,4464126.05999939,4.50000000,0,192,62,4.000000,17.000000,373249.312500,63.000000,1.000000
440547.04999878,4464126.89000122,4.67000008,0,200,54,4.000000,26.000000,373250.218750,63.000000,1.000000
440552.31998779,4464131.47000305,4.55000019,0,195,59,4.000000,12.000000,373250.625000,63.000000,1.000000
440552.29999878,4464131.25000183,4.53999996,0,194,60,4.000000,28.000000,373250.625000,63.000000,1.000000
440550.44999268,4464126.52000610,4.46000004,0,191,63,4.000000,26.000000,373250.812500,63.000000,1.000000
440547.96000244,4464126.33999817,4.61000013,0,197,57,4.000000,24.000000,373250.812500,63.000000,1.000000
440547.96998169,4464126.28999512,4.65999985,0,199,55,4.000000,8.000000,373250.937500,63.000000,1.000000
440548.10999634,4464126.39000122,4.51000023,0,192,62,4.000000,24.000000,373251.031250,63.000000,1.000000
440552.43998291,4464131.33000366,4.51000023,0,192,62,4.000000,10.000000,373251.218750,63.000000,1.000000
440552.09000732,4464131.25999634,4.57999992,0,195,59,4.000000,8.000000,373251.531250,63.000000,1.000000
440548.81000854,4464126.55999939,4.51999998,0,193,61,4.000000,20.000000,373252.031250,55.000000,1.000000
440548.78000977,4464126.00000183,4.46000004,0,191,63,4.000000,20.000000,373252.031250,55.000000,1.000000
440552.46000244,4464131.38000671,4.53999996,0,194,60,4.000000,22.000000,373252.125000,63.000000,1.000000
440552.24998047,4464131.38000671,4.59999990,0,197,57,4.000000,4.000000,373252.531250,54.000000,1.000000
440552.37998535,4464131.45999329,4.59000015,0,196,58,4.000000,0.000000,373253.718750,63.000000,1.000000
440549.59000732,4464133.66000549,4.46000004,0,191,63,2.000000,27.000000,373120.437500,63.000000,1.000000
440550.46000244,4464133.28999512,4.55999994,0,195,59,3.000000,15.000000,373155.062500,63.000000,1.000000
440549.94999268,4464133.17999451,4.69000006,0,201,53,3.000000,31.000000,373155.156250,63.000000,1.000000
440551.99000122,4464132.63000671,4.48999977,0,192,62,3.000000,13.000000,373155.250000,121.000000,1.000000
440550.87998535,4464133.25999634,4.59000015,0,196,58,3.000000,25.000000,373156.468750,63.000000,1.000000
