//X,Y,Z,R,G,B,Point Source ID,User Data,Time,Intensity,Classification
440423.11999084,4464080.25999634,6.23000002,11,255,0,4.000000,27.000000,373224.218750,63.000000,1.000000
440423.05999329,4464080.13000671,6.59000015,27,255,0,4.000000,11.000000,373224.218750,63.000000,1.000000
440423.65999939,4464080.95999329,6.21999979,11,255,0,4.000000,11.000000,373224.312500,63.000000,1.000000
440423.63000061,4464080.55000488,6.34000015,16,255,0,4.000000,11.000000,373224.312500,63.000000,1.000000
440423.58999207,4464080.52000610,6.42999983,20,255,0,4.000000,9.000000,373224.718750,63.000000,1.000000
440423.43999817,4464080.89000122,6.23000002,11,255,0,4.000000,23.000000,373225.125000,63.000000,1.000000
440423.52000000,4464080.80000488,6.32999992,16,255,0,4.000000,5.000000,373225.531250,63.000000,1.000000
440423.43999817,4464080.86000244,6.21000004,11,255,0,4.000000,3.000000,373226.125000,63.000000,1.000000
440423.61999084,4464081.00000183,6.44999981,21,255,0,4.000000,17.000000,373226.531250,63.000000,1.000000
440423.52999451,4464080.19000427,6.59000015,27,255,0,4.000000,17.000000,373226.531250,63.000000,1.000000
440423.41999390,4464080.83999817,6.32000017,15,255,0,4.000000,14.000000,373227.031250,63.000000,1.000000
440424.10000183,4464082.02000610,6.67999983,31,255,0,4.000000,30.000000,373227.125000,63.000000,1.000000
440423.45998718,4464080.92000000,6.30999994,15,255,0,4.000000,12.000000,373227.406250,63.000000,1.000000
440424.05999329,4464082.00999634,6.63000011,29,255,0,4.000000,12.000000,373227.531250,63.000000,1.000000
440423.71999695,4464080.99000732,6.34000015,16,255,0,4.000000,10.000000,373227.906250,63.000000,1.000000
440423.39998962,4464080.94999878,6.21999979,11,255,0,4.000000,24.000000,373228.218750,63.000000,1.000000
440423.32999756,4464080.30000488,6.46000004,21,255,0,4.000000,8.000000,373228.218750,63.000000,1.000000
440423.64998962,4464081.09999268,6.46000004,21,255,0,4.000000,8.000000,373228.312500,63.000000,1.000000
440423.19999268,4464080.63000671,6.23000002,11,255,0,4.000000,22.000000,373228.718750,63.000000,1.000000
440423.69999268,4464081.17000000,6.34000015,16,255,0,4.000000,22.000000,373228.812500,63.000000,1.000000
440423.14998962,4464080.64000122,6.23999977,12,255,0,4.000000,4.000000,373229.125000,61.000000,1.000000
440423.27000000,4464080.49000732,6.42999983,20,255,0,4.000000,0.000000,373229.906250,63.000000,1.000000
440423.25999023,4464080.34999268,6.53999996,25,255,0,4.000000,16.000000,373229.906250,63.000000,1.000000
440424.04999878,4464079.47000305,6.42000008,20,255,0,5.000000,19.000000,373307.656250,63.000000,1.000000
440424.10999634,4464079.50000183,6.50000000,23,255,0,5.000000,17.000000,373308.156250,63.000000,1.000000
440423.99000122,4464080.38000671,6.53999996,25,255,0,5.000000,30.000000,373308.562500,63.000000,1.000000
440423.92998840,4464080.30999939,6.57999992,26,255,0,5.000000,8.000000,373310.062500,63.000000,1.000000
440424.27000000,4464079.22000305,6.65999985,30,255,0,5.000000,16.000000,373311.781250,63.000000,1.000000
440425.39998962,4464081.36000244,5.42000008,0,232,22,5.000000,9.000000,373305.968750,63.000000,1.000000
440424.88000061,4464082.67000000,4.61999989,0,198,56,3.000000,27.000000,373179.562500,63.000000,1.000000
440425.11999084,4464082.31999390,4.57000017,0,195,59,5.000000,17.000000,373307.875000,63.000000,1.000000
440425.02999451,4464082.45999329,4.55999994,0,195,59,5.000000,16.000000,373311.781250,63.000000,1.000000
440427.94999268,4464081.05999939,5.01000023,0,214,40,4.000000,26.000000,373228.812500,63.000000,1.000000
440424.69999268,4464078.97999756,5.36000013,0,229,25,5.000000,13.000000,373305.281250,57.000000,1.000000
440428.16999390,4464076.84999268,5.30000019,0,227,27,5.000000,23.000000,373306.062500,63.000000,1.000000
440427.85999634,4464077.11999695,5.46999979,0,234,20,5.000000,21.000000,373306.562500,63.000000,1.000000
440424.44999268,4464078.39000122,5.07000017,0,217,37,5.000000,23.000000,373306.781250,63.000000,1.000000
440425.38999512,4464078.22000305,5.44000006,0,233,21,5.000000,12.000000,373308.781250,63.000000,1.000000
440424.78998901,4464078.20999329,5.15999985,0,221,33,5.000000,23.000000,373306.656250,63.000000,1.000000
440424.80999329,4464078.22000305,5.36000013,0,229,25,5.000000,17.000000,373308.062500,63.000000,1.000000
440425.36999084,4464078.94000427,4.96000004,0,212,42,5.000000,12.000000,373308.781250,63.000000,1.000000
440424.88999512,4464082.56999390,4.63000011,0,198,56,3.000000,13.000000,373178.968750,56.000000,1.000000
440426.95998718,4464081.91000549,4.46999979,0,191,63,4.000000,10.000000,373228.625000,63.000000,1.000000
440427.44999268,4464076.99000732,4.59000015,0,196,58,5.000000,19.000000,373307.156250,63.000000,1.000000
440427.25999023,4464077.00999634,4.65000010,0,198,56,5.000000,30.000000,373308.062500,63.000000,1.000000
440425.22999146,4464082.30000488,4.53000021,0,194,60,5.000000,30.000000,373308.375000,63.000000,1.000000
440427.16999390,4464077.14000122,4.55000019,0,195,59,5.000000,26.000000,373309.062500,63.000000,1.000000
440425.60999634,4464078.03000061,4.57000017,0,195,59,5.000000,4.000000,373310.562500,58.000000,1.000000
440424.97999146,4464082.70999329,4.48999977,0,192,62,5.000000,4.000000,373310.781250,56.000000,1.000000
440424.75999023,4464082.52000610,4.78999996,0,204,50,3.000000,16.000000,373188.281250,63.000000,1.000000
440427.60999634,4464076.53999512,5.15999985,0,221,33,4.000000,5.000000,373226.531250,63.000000,1.000000
440427.92998840,4464076.94999878,4.98999977,0,213,41,5.000000,15.000000,373304.281250,63.000000,1.000000
440428.16999390,4464076.81999390,5.19000006,0,222,32,5.000000,27.000000,373305.156250,63.000000,1.000000
440425.31998779,4464079.00000183,4.86999989,0,208,46,5.000000,13.000000,373305.156250,56.000000,1.000000
440427.67998840,4464077.25000183,5.42000008,0,232,22,5.000000,25.000000,373305.562500,63.000000,1.000000
440424.49000122,4464079.50000183,5.34000015,0,228,26,5.000000,11.000000,373305.656250,63.000000,1.000000
440425.39998962,4464078.28000061,5.46000004,0,234,20,5.000000,23.000000,373306.562500,63.000000,1.000000
440427.25999023,4464076.97999756,4.65000010,0,198,56,5.000000,5.000000,373306.656250,63.000000,1.000000
440428.71999695,4464078.06999390,5.51999998,0,236,18,5.000000,19.000000,373306.875000,63.000000,1.000000
440425.08999207,4464078.22000305,5.05000019,0,216,38,5.000000,19.000000,373307.562500,63.000000,1.000000
440425.11999084,4464079.05999939,5.38000011,0,230,24,5.000000,1.000000,373307.968750,63.000000,1.000000
440424.71999695,4464078.89000122,5.36999989,0,230,24,5.000000,1.000000,373308.062500,100.000000,1.000000
440427.93999817,4464076.97000305,5.07999992,0,217,37,5.000000,12.000000,373308.375000,63.000000,1.000000
440425.78998901,4464078.75999634,5.05999994,0,216,38,5.000000,28.000000,373308.656250,63.000000,1.000000
440427.81998779,4464076.78999512,5.05999994,0,216,38,5.000000,26.000000,373308.875000,63.000000,1.000000
440428.28998901,4464078.03000061,5.32999992,0,228,26,5.000000,24.000000,373309.281250,63.000000,1.000000
440424.58999207,4464078.75000183,5.26999998,0,225,29,5.000000,10.000000,373309.468750,63.000000,1.000000
440424.53998901,4464079.39999573,5.48000002,0,234,20,5.000000,26.000000,373309.468750,63.000000,1.000000
440427.49999573,4464077.14999573,5.34999990,0,229,25,5.000000,22.000000,373309.875000,63.000000,1.000000
440425.85000183,4464078.80000488,5.09000015,0,218,36,5.000000,20.000000,373310.468750,58.000000,1.000000
440425.45998718,4464079.25000183,5.17999983,0,222,32,5.000000,4.000000,373310.562500,58.000000,1.000000
440427.65999939,4464076.97000305,5.15000010,0,220,34,5.000000,18.000000,373310.687500,100.000000,1.000000
440424.74000122,4464078.69999878,5.34999990,0,229,25,5.000000,20.000000,373310.781250,58.000000,1.000000
440424.47999146,4464078.89999573,5.34999990,0,229,25,5.000000,20.000000,373310.875000,58.000000,1.000000
440427.80999329,4464076.84999268,5.25000000,0,225,29,5.000000,0.000000,373311.281250,63.000000,1.000000
440424.66999390,4464078.66000549,5.28000021,0,226,28,5.000000,0.000000,373311.781250,63.000000,1.000000
440427.45998718,4464076.81999390,5.07999992,0,217,37,6.000000,29.000000,373347.968750,45.000000,1.000000
440424.99000122,4464078.19000427,5.03000021,0,215,39,5.000000,25.000000,373306.281250,63.000000,1.000000
440425.07999756,4464078.33999817,5.32000017,0,228,26,5.000000,24.000000,373309.875000,63.000000,1.000000
440427.93999817,4464077.00999634,5.50000000,0,235,19,5.000000,20.000000,373310.281250,59.000000,1.000000
440428.02000000,4464081.52000610,5.53999996,0,237,17,3.000000,12.000000,373183.781250,63.000000,1.000000
440427.06998779,4464076.53999512,4.96000004,0,212,42,4.000000,13.000000,373224.531250,59.000000,1.000000
440426.49999573,4464079.44000427,4.69000006,0,201,53,4.000000,25.000000,373225.312500,63.000000,1.000000
440426.92998840,4464076.75000183,5.34999990,0,229,25,4.000000,23.000000,373226.031250,63.000000,1.000000
440426.96999695,4464076.94000427,5.36000013,0,229,25,4.000000,30.000000,373227.812500,63.000000,1.000000
440427.99000122,4464081.11999695,5.03000021,0,215,39,4.000000,30.000000,373227.906250,63.000000,1.000000
440427.99000122,4464081.28000061,5.11000013,0,219,35,4.000000,10.000000,373228.812500,63.000000,1.000000
440426.71999695,4464079.39999573,4.53999996,0,194,60,4.000000,8.000000,373229.031250,63.000000,1.000000
440427.58999207,4464076.67999451,5.28000021,0,226,28,4.000000,8.000000,373229.218750,63.000000,1.000000
440427.93999817,4464077.33999817,4.55999994,0,195,59,4.000000,24.000000,373229.312500,63.000000,1.000000
440427.88999512,4464081.25000183,5.13999987,0,220,34,4.000000,22.000000,373229.625000,63.000000,1.000000
440426.38000061,4464079.64000122,4.71999979,0,201,53,4.000000,0.000000,373230.812500,63.000000,1.000000
440428.85000183,4464078.28999512,5.48999977,0,235,19,5.000000,29.000000,373304.562500,56.000000,1.000000
440424.74000122,4464078.59999268,5.03999996,0,216,38,5.000000,13.000000,373305.281250,122.000000,1.000000
440427.69999268,4464077.08999817,5.32000017,0,228,26,5.000000,9.000000,373305.562500,63.000000,1.000000
440425.07999756,4464078.53000061,5.26000023,0,225,29,5.000000,27.000000,373305.562500,63.000000,1.000000
440427.20998718,4464076.89000122,4.55000019,0,195,59,5.000000,25.000000,373305.656250,63.000000,1.000000
440424.63999512,4464078.58000366,5.05000019,0,216,38,5.000000,11.000000,373305.656250,63.000000,1.000000
440428.45998718,4464076.78999512,5.28000021,0,226,28,5.000000,23.000000,373305.968750,63.000000,1.000000
440427.65999939,4464076.91000549,5.15000010,0,220,34,5.000000,23.000000,373306.156250,63.000000,1.000000
440427.49000122,4464077.28000061,5.46999979,0,234,20,5.000000,23.000000,373306.281250,63.000000,1.000000
440424.90999939,4464078.74000732,4.92999983,0,211,43,5.000000,25.000000,373306.281250,63.000000,1.000000
440428.55999329,4464076.81999390,5.13000011,0,219,35,5.000000,17.000000,373307.375000,63.000000,1.000000
440424.97999146,4464079.05000488,5.42000008,0,232,22,5.000000,19.000000,373307.562500,63.000000,1.000000
440425.68999817,4464081.72000305,4.75000000,0,203,51,5.000000,17.000000,373307.781250,63.000000,1.000000
440427.91999390,4464077.11000244,5.36000013,0,229,25,5.000000,14.000000,373307.875000,63.000000,1.000000
440424.85000183,4464077.92000000,4.80000019,0,205,49,5.000000,17.000000,373308.062500,63.000000,1.000000
440424.74999573,4464078.69999878,5.17000008,0,221,33,5.000000,17.000000,373308.062500,63.000000,1.000000
440425.49000122,4464078.84999268,4.76000023,0,204,50,5.000000,14.000000,373308.375000,63.000000,1.000000
440425.46999695,4464078.05999939,4.69000006,0,201,53,5.000000,12.000000,373308.781250,63.000000,1.000000
440427.65999939,4464077.17999451,5.36000013,0,229,25,5.000000,24.000000,373309.375000,63.000000,1.000000
440425.35999634,4464077.95999329,4.55000019,0,195,59,5.000000,10.000000,373309.375000,63.000000,1.000000
440427.17998840,4464076.94000427,4.61000013,0,197,57,5.000000,8.000000,373309.468750,63.000000,1.000000
440425.24000122,4464078.42000000,5.48000002,0,234,20,5.000000,8.000000,373309.781250,63.000000,1.000000
440425.24000122,4464078.97999756,5.34000015,0,228,26,5.000000,8.000000,373309.781250,63.000000,1.000000
440425.13999512,4464077.97999756,4.86999989,0,208,46,5.000000,24.000000,373309.875000,63.000000,1.000000
440424.63000061,4464078.88000671,5.38999987,0,231,23,5.000000,24.000000,373309.968750,63.000000,1.000000
440428.24000122,4464076.75999634,5.30000019,0,227,27,5.000000,2.000000,373310.468750,100.000000,1.000000
440427.83999207,4464076.59999268,5.11999989,0,219,35,5.000000,16.000000,373311.281250,63.000000,1.000000
440427.29999878,4464076.89000122,4.51999998,0,193,61,5.000000,0.000000,373311.375000,63.000000,1.000000
440424.43999817,4464078.22999756,5.01000023,0,214,40,6.000000,5.000000,373349.468750,63.000000,1.000000
440428.02000000,4464082.08999817,4.46999979,0,191,63,3.000000,29.000000,373178.468750,57.000000,1.000000
440426.95998718,4464082.30999939,4.53999996,0,194,60,3.000000,13.000000,373178.656250,57.000000,1.000000
440424.90999939,4464082.86000244,4.55000019,0,195,59,3.000000,29.000000,373178.968750,56.000000,1.000000
440424.47999146,4464081.59999268,4.55000019,0,195,59,3.000000,13.000000,373179.062500,57.000000,1.000000
440427.27000000,4464082.11000244,4.55999994,0,195,59,3.000000,17.000000,373182.375000,63.000000,1.000000
440424.29999878,4464081.78000061,4.59000015,0,196,58,3.000000,17.000000,373182.875000,63.000000,1.000000
440424.85999634,4464082.55999939,4.55999994,0,195,59,4.000000,31.000000,373223.718750,63.000000,1.000000
440424.52000000,4464081.69999878,4.59999990,0,197,57,4.000000,11.000000,373224.406250,63.000000,1.000000
440426.91999390,4464081.75999634,4.46999979,0,191,63,4.000000,7.000000,373225.906250,63.000000,1.000000
440426.43999817,4464082.24000732,4.53000021,0,194,60,4.000000,26.000000,373228.531250,63.000000,1.000000
440427.70998718,4464078.30999939,4.67000008,0,200,54,4.000000,8.000000,373229.218750,63.000000,1.000000
440428.08999207,4464081.25000183,4.90000010,0,210,44,4.000000,20.000000,373230.031250,60.000000,1.000000
440427.78998901,4464078.50999634,4.51000023,0,192,62,4.000000,16.000000,373231.125000,63.000000,1.000000
440427.78998901,4464078.28999512,4.63999987,0,198,56,4.000000,0.000000,373231.125000,63.000000,1.000000
440427.40999939,4464076.99000732,4.57000017,0,195,59,5.000000,31.000000,373304.375000,63.000000,1.000000
440425.55999329,4464078.05999939,4.48999977,0,192,62,5.000000,31.000000,373304.656250,63.000000,1.000000
440427.52000000,4464078.53999512,4.51000023,0,192,62,5.000000,29.000000,373304.781250,56.000000,1.000000
440425.45998718,4464078.14000122,4.59000015,0,196,58,5.000000,13.000000,373305.156250,56.000000,1.000000
440427.35999634,4464076.94000427,4.50000000,0,192,62,5.000000,27.000000,373305.281250,63.000000,1.000000
440428.58999207,4464078.11999695,4.48999977,0,192,62,5.000000,25.000000,373305.375000,63.000000,1.000000
440425.52999451,4464081.86999695,4.61999989,0,198,56,5.000000,27.000000,373305.375000,63.000000,1.000000
440425.60000183,4464078.08000366,4.53999996,0,194,60,5.000000,27.000000,373305.468750,63.000000,1.000000
440424.89998962,4464081.77000610,4.50000000,0,192,62,5.000000,27.000000,373305.468750,63.000000,1.000000
440428.85999634,4464078.72999756,4.71000004,0,201,53,5.000000,7.000000,373305.781250,63.000000,1.000000
440425.38000061,4464078.00000183,4.61000013,0,197,57,5.000000,7.000000,373306.562500,63.000000,1.000000
440426.92998840,4464076.94999878,4.61000013,0,197,57,5.000000,21.000000,373306.781250,63.000000,1.000000
440425.07999756,4464082.53999512,4.61000013,0,197,57,5.000000,5.000000,373307.062500,63.000000,1.000000
440425.56998779,4464077.94999878,4.46999979,0,191,63,5.000000,1.000000,373307.875000,63.000000,1.000000
440425.16999390,4464082.25999634,4.59999990,0,197,57,5.000000,12.000000,373308.781250,63.000000,1.000000
440425.43999817,4464078.19999878,4.59999990,0,197,57,5.000000,28.000000,373308.875000,63.000000,1.000000
440425.13000061,4464082.14999573,4.55000019,0,195,59,5.000000,12.000000,373308.875000,63.000000,1.000000
440425.10999634,4464082.36999695,4.53000021,0,194,60,5.000000,28.000000,373308.875000,63.000000,1.000000
440427.17998840,4464076.94000427,4.46999979,0,191,63,5.000000,10.000000,373309.062500,63.000000,1.000000
440425.10999634,4464082.17999451,4.50000000,0,192,62,5.000000,10.000000,373309.375000,63.000000,1.000000
440425.05999329,4464081.78000061,4.67000008,0,200,54,5.000000,24.000000,373309.875000,63.000000,1.000000
440427.27000000,4464076.92000000,4.59000015,0,196,58,5.000000,6.000000,373309.968750,63.000000,1.000000
440427.28998901,4464077.17999451,4.53999996,0,194,60,5.000000,22.000000,373309.968750,63.000000,1.000000
440425.06998779,4464083.03999512,4.59999990,0,197,57,5.000000,16.000000,373311.781250,63.000000,1.000000
440425.74999573,4464081.78000061,4.82999992,0,207,47,3.000000,31.000000,373178.156250,63.000000,1.000000
440425.60999634,4464082.30999939,4.86999989,0,208,46,3.000000,11.000000,373179.468750,63.000000,1.000000
440425.49999573,4464082.41000549,4.69000006,0,201,53,3.000000,9.000000,373180.062500,63.000000,1.000000
440425.44999268,4464082.53000061,4.73000002,0,202,52,3.000000,7.000000,373180.781250,63.000000,1.000000
440424.96999695,4464082.30999939,4.67999983,0,200,54,3.000000,3.000000,373182.156250,63.000000,1.000000
440425.53998901,4464082.42999451,4.82000017,0,206,48,3.000000,17.000000,373182.656250,63.000000,1.000000
440424.91999390,4464082.70999329,4.69000006,0,201,53,3.000000,1.000000,373182.781250,63.000000,1.000000
440424.35000183,4464081.05999939,4.82999992,0,207,47,3.000000,17.000000,373182.875000,63.000000,1.000000
440424.49000122,4464082.64000122,5.11000013,0,219,35,4.000000,31.000000,373223.625000,63.000000,1.000000
440424.57999756,4464081.78999512,4.82999992,0,207,47,4.000000,15.000000,373223.625000,63.000000,1.000000
440427.49999573,4464076.42999451,5.32999992,0,228,26,4.000000,29.000000,373224.625000,59.000000,1.000000
440426.29999878,4464079.86999695,4.78999996,0,204,50,4.000000,27.000000,373224.812500,63.000000,1.000000
440427.93999817,4464080.72000305,5.34999990,0,229,25,4.000000,11.000000,373225.125000,63.000000,1.000000
440424.41999390,4464081.89999573,4.69999981,0,201,53,4.000000,23.000000,373225.312500,63.000000,1.000000
440428.03998901,4464080.94000427,4.84000015,0,207,47,4.000000,25.000000,373225.531250,63.000000,1.000000
440428.02000000,4464080.70999329,5.00000000,0,214,40,4.000000,9.000000,373225.531250,63.000000,1.000000
440426.41999390,4464079.44000427,4.73000002,0,202,52,4.000000,23.000000,373225.718750,63.000000,1.000000
440426.65999939,4464083.27000610,5.53999996,0,237,17,4.000000,23.000000,373225.812500,63.000000,1.000000
440426.44999268,4464079.64000122,4.67999983,0,200,54,4.000000,7.000000,373225.812500,63.000000,1.000000
440426.43999817,4464079.47000305,4.71999979,0,201,53,4.000000,23.000000,373225.812500,63.000000,1.000000
440427.99000122,4464081.03999512,5.03000021,0,215,39,4.000000,5.000000,373226.531250,63.000000,1.000000
440424.30999329,4464078.34999268,5.13000011,0,219,35,4.000000,17.000000,373226.718750,63.000000,1.000000
440426.95998718,4464076.78000061,5.23999977,0,224,30,4.000000,19.000000,373226.906250,63.000000,1.000000
440426.79999878,4464076.72000305,5.15999985,0,221,33,4.000000,17.000000,373227.312500,63.000000,1.000000
440427.77000000,4464081.03000061,5.55999994,0,238,16,4.000000,17.000000,373227.406250,63.000000,1.000000
440427.49000122,4464081.30999939,5.44999981,0,233,21,4.000000,14.000000,373227.812500,63.000000,1.000000
440426.94999268,4464076.72000305,5.55999994,0,238,16,4.000000,14.000000,373227.812500,63.000000,1.000000
440428.00999023,4464081.28999512,5.00000000,0,214,40,4.000000,14.000000,373227.906250,63.000000,1.000000
440427.49999573,4464076.70999329,5.42999983,0,232,22,4.000000,30.000000,373227.906250,63.000000,1.000000
440427.74999573,4464081.20999329,5.44000006,0,233,21,4.000000,12.000000,373228.218750,63.000000,1.000000
440427.24000122,4464077.47999756,5.36000013,0,229,25,4.000000,12.000000,373228.218750,63.000000,1.000000
440427.90999939,4464081.22999756,5.11999989,0,219,35,4.000000,28.000000,373228.312500,63.000000,1.000000
440427.05999329,4464077.03000061,5.53999996,0,237,17,4.000000,26.000000,373228.718750,63.000000,1.000000
440427.65999939,4464081.81999390,5.13000011,0,219,35,4.000000,24.000000,373229.125000,63.000000,1.000000
440426.60000183,4464079.55000488,4.61000013,0,197,57,4.000000,6.000000,373229.406250,63.000000,1.000000
440427.86999084,4464081.00999634,5.25000000,0,225,29,4.000000,6.000000,373229.625000,63.000000,1.000000
440427.78998901,4464081.49000732,5.25000000,0,225,29,4.000000,20.000000,373229.906250,60.000000,1.000000
440427.43999817,4464076.86000244,5.53999996,0,237,17,4.000000,20.000000,373230.031250,59.000000,1.000000
440424.90999939,4464082.00999634,4.82000017,0,206,48,4.000000,0.000000,373230.406250,63.000000,1.000000
440427.89998962,4464081.33000366,5.11000013,0,219,35,4.000000,18.000000,373230.625000,100.000000,1.000000
440427.65999939,4464076.92000000,5.23999977,0,224,30,4.000000,16.000000,373231.125000,63.000000,1.000000
440428.44999268,4464077.47000305,4.86000013,0,208,46,5.000000,15.000000,373304.156250,63.000000,1.000000
440428.38999512,4464078.22999756,5.36999989,0,230,24,5.000000,15.000000,373304.156250,63.000000,1.000000
440427.89998962,4464077.14000122,5.15000010,0,220,34,5.000000,31.000000,373304.281250,63.000000,1.000000
440428.39998962,4464076.75999634,5.28999996,0,226,28,5.000000,13.000000,373304.656250,57.000000,1.000000
440428.33999207,4464077.19999878,5.53999996,0,237,17,5.000000,13.000000,373304.656250,57.000000,1.000000
440425.40999939,4464078.94999878,4.73999977,0,203,51,5.000000,31.000000,373304.656250,63.000000,1.000000
440427.93999817,4464076.77000610,4.92999983,0,211,43,5.000000,29.000000,373304.781250,57.000000,1.000000
440427.90999939,4464077.03000061,5.17000008,0,221,33,5.000000,13.000000,373304.781250,122.000000,1.000000
440427.91999390,4464077.14999573,5.34999990,0,229,25,5.000000,29.000000,373304.781250,57.000000,1.000000
440427.44999268,4464077.05999939,4.73999977,0,203,51,5.000000,29.000000,373304.875000,57.000000,1.000000
440427.49000122,4464077.30000488,5.30000019,0,227,27,5.000000,29.000000,373304.875000,57.000000,1.000000
440424.86999084,4464078.08999817,5.05999994,0,216,38,5.000000,31.000000,373304.875000,63.000000,1.000000
440424.78998901,4464078.55000488,5.19999981,0,222,32,5.000000,31.000000,373304.875000,63.000000,1.000000
440424.75999023,4464078.80000488,5.03999996,0,216,38,5.000000,15.000000,373304.875000,63.000000,1.000000
440426.88000061,4464077.00999634,4.82999992,0,207,47,5.000000,13.000000,373304.968750,57.000000,1.000000
440428.68999817,4464078.25999634,5.42999983,0,232,22,5.000000,11.000000,373305.062500,63.000000,1.000000
440428.14998962,4464077.05999939,5.44999981,0,233,21,5.000000,11.000000,373305.156250,63.000000,1.000000
440427.36999084,4464077.33000366,5.44000006,0,233,21,5.000000,11.000000,373305.281250,63.000000,1.000000
440424.75999023,4464078.22999756,4.78000021,0,204,50,5.000000,13.000000,373305.281250,56.000000,1.000000
440424.70998718,4464078.78000061,5.09999990,0,218,36,5.000000,29.000000,373305.281250,56.000000,1.000000
440424.61999084,4464079.25999634,5.25000000,0,225,29,5.000000,29.000000,373305.281250,56.000000,1.000000
440428.66999390,4464078.17000000,5.44999981,0,233,21,5.000000,25.000000,373305.375000,63.000000,1.000000
440428.27000000,4464076.81999390,5.26999998,0,225,29,5.000000,9.000000,373305.468750,63.000000,1.000000
440428.24999573,4464076.97999756,5.34999990,0,229,25,5.000000,25.000000,373305.468750,63.000000,1.000000
440425.43999817,4464079.00000183,4.76000023,0,204,50,5.000000,27.000000,373305.468750,63.000000,1.000000
440427.72999146,4464076.83999817,5.15000010,0,220,34,5.000000,25.000000,373305.562500,63.000000,1.000000
440425.10000183,4464078.38000671,5.15000010,0,220,34,5.000000,11.000000,373305.562500,63.000000,1.000000
440427.20998718,4464077.47999756,5.51999998,0,236,18,5.000000,25.000000,373305.656250,63.000000,1.000000
440424.66999390,4464078.19999878,4.82000017,0,206,48,5.000000,11.000000,373305.656250,63.000000,1.000000
440424.67998840,4464078.30000488,5.03999996,0,216,38,5.000000,27.000000,373305.656250,63.000000,1.000000
440424.58999207,4464078.95999329,5.32999992,0,228,26,5.000000,11.000000,373305.656250,63.000000,1.000000
440424.49999573,4464079.28999512,5.13999987,0,220,34,5.000000,27.000000,373305.656250,63.000000,1.000000
440428.56998779,4464077.92000000,5.53999996,0,237,17,5.000000,7.000000,373305.875000,63.000000,1.000000
440428.52000000,4464078.17999451,5.38999987,0,231,23,5.000000,23.000000,373305.875000,63.000000,1.000000
440428.42998840,4464077.03999512,5.48000002,0,234,20,5.000000,7.000000,373305.968750,63.000000,1.000000
440428.35000183,4464077.42999451,5.07000017,0,217,37,5.000000,23.000000,373305.968750,63.000000,1.000000
440427.63000061,4464077.19000427,5.25000000,0,225,29,5.000000,7.000000,373306.156250,63.000000,1.000000
440427.61999084,4464077.33000366,5.38999987,0,231,23,5.000000,23.000000,373306.156250,63.000000,1.000000
440425.11999084,4464078.20999329,5.00000000,0,214,40,5.000000,25.000000,373306.156250,63.000000,1.000000
440425.11999084,4464078.36000244,5.30999994,0,227,27,5.000000,9.000000,373306.156250,63.000000,1.000000
440425.00999023,4464078.02000610,4.96000004,0,212,42,5.000000,9.000000,373306.281250,63.000000,1.000000
440424.97999146,4464078.39000122,5.23999977,0,224,30,5.000000,9.000000,373306.281250,63.000000,1.000000
440424.90999939,4464078.94000427,5.53000021,0,237,17,5.000000,25.000000,373306.281250,63.000000,1.000000
440424.40999939,4464078.45999329,5.07999992,0,217,37,5.000000,25.000000,373306.375000,63.000000,1.000000
440424.31998779,4464079.13000671,5.38000011,0,230,24,5.000000,9.000000,373306.375000,63.000000,1.000000
440428.58999207,4464076.86000244,5.25000000,0,225,29,5.000000,21.000000,373306.468750,63.000000,1.000000
440428.44999268,4464077.94000427,5.17000008,0,221,33,5.000000,21.000000,373306.468750,63.000000,1.000000
440425.94999268,4464079.00999634,4.88999987,0,209,45,5.000000,7.000000,373306.468750,63.000000,1.000000
440427.88999512,4464076.77000610,5.01999998,0,215,39,5.000000,21.000000,373306.562500,63.000000,1.000000
440427.85999634,4464077.02000610,5.25000000,0,225,29,5.000000,5.000000,373306.562500,63.000000,1.000000
440425.27000000,4464078.86000244,4.88999987,0,209,45,5.000000,7.000000,373306.562500,63.000000,1.000000
440427.24000122,4464077.30000488,5.13999987,0,220,34,5.000000,5.000000,373306.656250,63.000000,1.000000
440424.78998901,4464078.13000671,4.90999985,0,210,44,5.000000,7.000000,373306.656250,63.000000,1.000000
440424.75999023,4464078.44000427,5.07999992,0,217,37,5.000000,7.000000,373306.656250,63.000000,1.000000
440424.72999146,4464078.64999573,5.05999994,0,216,38,5.000000,23.000000,373306.656250,63.000000,1.000000
440424.68999817,4464079.05000488,5.34000015,0,228,26,5.000000,23.000000,373306.656250,63.000000,1.000000
440424.39998962,4464078.69000427,5.07999992,0,217,37,5.000000,7.000000,373306.781250,63.000000,1.000000
440424.40999939,4464078.75999634,5.34999990,0,229,25,5.000000,23.000000,373306.781250,63.000000,1.000000
440424.30999329,4464079.33999817,5.23000002,0,224,30,5.000000,23.000000,373306.781250,63.000000,1.000000
440428.43999817,4464077.89000122,5.19999981,0,222,32,5.000000,19.000000,373306.968750,63.000000,1.000000
440428.11999084,4464076.95999329,5.44000006,0,233,21,5.000000,19.000000,373307.062500,63.000000,1.000000
440427.40999939,4464077.20999329,5.30999994,0,227,27,5.000000,19.000000,373307.156250,63.000000,1.000000
440424.99000122,4464078.03999512,5.01000023,0,214,40,5.000000,21.000000,373307.156250,63.000000,1.000000
440424.97999146,4464078.19000427,5.32000017,0,228,26,5.000000,5.000000,373307.156250,63.000000,1.000000
440424.95998718,4464078.39000122,5.32999992,0,228,26,5.000000,21.000000,373307.156250,63.000000,1.000000
440424.89998962,4464078.78000061,5.15000010,0,220,34,5.000000,5.000000,373307.156250,63.000000,1.000000
440426.71999695,4464077.27000610,5.38000011,0,230,24,5.000000,19.000000,373307.281250,63.000000,1.000000
440428.50999023,4464077.42999451,4.96999979,0,213,41,5.000000,17.000000,373307.375000,63.000000,1.000000
440428.46999695,4464077.84999268,5.19000006,0,222,32,5.000000,17.000000,373307.375000,63.000000,1.000000
440426.02000000,4464078.92000000,5.01999998,0,215,39,5.000000,3.000000,373307.375000,63.000000,1.000000
440428.14998962,4464076.66000549,5.23000002,0,224,30,5.000000,1.000000,373307.468750,63.000000,1.000000
440428.13000061,4464076.86999695,5.21000004,0,223,31,5.000000,17.000000,373307.468750,63.000000,1.000000
440427.49000122,4464077.28999512,5.53999996,0,237,17,5.000000,17.000000,373307.562500,100.000000,1.000000
440425.05999329,4464078.39999573,5.30999994,0,227,27,5.000000,3.000000,373307.562500,63.000000,1.000000
440428.82999756,4464078.30000488,5.55999994,0,238,16,5.000000,30.000000,373307.656250,63.000000,1.000000
440428.44999268,4464076.78000061,5.38000011,0,230,24,5.000000,30.000000,373307.781250,63.000000,1.000000
440428.42998840,4464077.06999390,5.51000023,0,236,18,5.000000,14.000000,373307.781250,63.000000,1.000000
440427.94999268,4464076.88000671,5.07999992,0,217,37,5.000000,30.000000,373307.875000,63.000000,1.000000
440425.45998718,4464078.86999695,4.80000019,0,205,49,5.000000,1.000000,373307.875000,63.000000,1.000000
440425.44999268,4464079.02000610,4.92999983,0,211,43,5.000000,17.000000,373307.875000,63.000000,1.000000
440427.64998962,4464076.83999817,5.13000011,0,219,35,5.000000,30.000000,373307.968750,63.000000,1.000000
440427.61999084,4464077.11999695,5.23999977,0,224,30,5.000000,14.000000,373307.968750,63.000000,1.000000
440427.60000183,4464077.27000610,5.34999990,0,229,25,5.000000,30.000000,373307.968750,63.000000,1.000000
440425.21999695,4464078.25999634,4.96000004,0,212,42,5.000000,1.000000,373307.968750,63.000000,1.000000
440425.20998718,4464078.27000610,5.34999990,0,229,25,5.000000,17.000000,373307.968750,63.000000,1.000000
440425.15999939,4464078.83999817,4.80000019,0,205,49,5.000000,1.000000,373307.968750,63.000000,1.000000
440427.20998718,4464077.28000061,5.15999985,0,221,33,5.000000,30.000000,373308.062500,63.000000,1.000000
440424.81998779,4464078.11999695,5.15000010,0,220,34,5.000000,1.000000,373308.062500,63.000000,1.000000
440424.77000000,4464078.52000610,5.11000013,0,219,35,5.000000,1.000000,373308.062500,100.000000,1.000000
440424.69999268,4464079.14000122,5.34000015,0,228,26,5.000000,17.000000,373308.062500,63.000000,1.000000
440424.66999390,4464079.42000000,5.40000010,0,231,23,5.000000,1.000000,373308.062500,63.000000,1.000000
440425.90999939,4464081.81999390,4.71999979,0,201,53,5.000000,30.000000,373308.281250,63.000000,1.000000
440427.90999939,4464077.05999939,5.46000004,0,234,20,5.000000,28.000000,373308.375000,63.000000,1.000000
440425.46999695,4464078.97999756,4.90999985,0,210,44,5.000000,30.000000,373308.375000,63.000000,1.000000
440427.41999390,4464077.22999756,5.44000006,0,233,21,5.000000,12.000000,373308.468750,63.000000,1.000000
440425.05999329,4464078.08000366,5.11000013,0,219,35,5.000000,14.000000,373308.468750,63.000000,1.000000
440425.03998901,4464078.22999756,5.21999979,0,223,31,5.000000,30.000000,373308.468750,63.000000,1.000000
440425.02000000,4464078.47000305,5.34000015,0,228,26,5.000000,14.000000,373308.468750,63.000000,1.000000
440428.24999573,4464076.78999512,5.15000010,0,220,34,5.000000,10.000000,373308.656250,63.000000,1.000000
440428.20998718,4464076.88000671,5.42000008,0,232,22,5.000000,26.000000,373308.656250,63.000000,1.000000
440428.15999939,4464077.95999329,5.30999994,0,227,27,5.000000,26.000000,373308.656250,63.000000,1.000000
440427.86999084,4464076.72000305,5.00000000,0,214,40,5.000000,10.000000,373308.781250,63.000000,1.000000
440427.82999756,4464076.83999817,5.17000008,0,221,33,5.000000,26.000000,373308.781250,63.000000,1.000000
440427.78998901,4464077.03999512,5.53000021,0,237,17,5.000000,10.000000,373308.781250,63.000000,1.000000
440425.39998962,4464078.72000305,4.78999996,0,204,50,5.000000,28.000000,373308.781250,63.000000,1.000000
440425.33999207,4464079.03000061,5.19999981,0,222,32,5.000000,28.000000,373308.781250,63.000000,1.000000
440427.50999023,4464080.56999390,5.55000019,0,237,17,5.000000,26.000000,373308.781250,63.000000,1.000000
440427.75999023,4464076.91000549,5.42000008,0,232,22,5.000000,10.000000,373308.875000,63.000000,1.000000
440425.44999268,4464077.99000732,4.48999977,0,192,62,5.000000,12.000000,373308.875000,63.000000,1.000000
440425.35000183,4464078.86999695,4.86000013,0,208,46,5.000000,12.000000,373308.875000,63.000000,1.000000
440425.27999451,4464079.19999878,5.26000023,0,225,29,5.000000,12.000000,373308.875000,63.000000,1.000000
440425.10000183,4464078.22000305,5.21999979,0,223,31,5.000000,28.000000,373308.968750,63.000000,1.000000
440425.05999329,4464078.45999329,5.38999987,0,231,23,5.000000,12.000000,373308.968750,63.000000,1.000000
440427.08999207,4464077.17000000,5.11999989,0,219,35,5.000000,10.000000,373309.062500,63.000000,1.000000
440424.63999512,4464078.22999756,5.15999985,0,221,33,5.000000,12.000000,373309.062500,63.000000,1.000000
440424.61999084,4464078.45999329,5.11000013,0,219,35,5.000000,28.000000,373309.062500,63.000000,1.000000
440424.60000183,4464078.72000305,5.15999985,0,221,33,5.000000,12.000000,373309.062500,63.000000,1.000000
440424.56998779,4464078.80999939,5.40000010,0,231,23,5.000000,28.000000,373309.062500,63.000000,1.000000
440424.54999878,4464079.14000122,5.40999985,0,231,23,5.000000,12.000000,373309.062500,63.000000,1.000000
440424.52999451,4464079.31999390,5.42999983,0,232,22,5.000000,28.000000,373309.062500,63.000000,1.000000
440428.69999268,4464077.97999756,5.55000019,0,237,17,5.000000,8.000000,373309.187500,63.000000,1.000000
440428.29999878,4464076.69999878,5.51000023,0,236,18,5.000000,8.000000,373309.281250,63.000000,1.000000
440428.28998901,4464076.89999573,5.51000023,0,236,18,5.000000,24.000000,373309.281250,63.000000,1.000000
440425.89998962,4464078.80999939,5.07999992,0,217,37,5.000000,26.000000,373309.281250,63.000000,1.000000
440427.69999268,4464076.74000732,5.15000010,0,220,34,5.000000,24.000000,373309.375000,63.000000,1.000000
440427.66999390,4464076.99000732,5.25000000,0,225,29,5.000000,8.000000,373309.375000,63.000000,1.000000
440425.25999023,4464078.83999817,4.94999981,0,212,42,5.000000,10.000000,373309.375000,63.000000,1.000000
440427.08999207,4464077.22999756,5.15999985,0,221,33,5.000000,8.000000,373309.468750,63.000000,1.000000
440424.67998840,4464078.06999390,5.01000023,0,214,40,5.000000,26.000000,373309.468750,63.000000,1.000000
440424.63000061,4464078.30999939,5.15999985,0,221,33,5.000000,10.000000,373309.468750,63.000000,1.000000
440424.63000061,4464078.53000061,5.11000013,0,219,35,5.000000,26.000000,373309.468750,63.000000,1.000000
440424.56998779,4464078.89000122,5.38999987,0,231,23,5.000000,26.000000,373309.468750,63.000000,1.000000
440424.55999329,4464079.25000183,5.36999989,0,230,24,5.000000,10.000000,373309.468750,63.000000,1.000000
440428.75999023,4464077.69999878,5.53999996,0,237,17,5.000000,22.000000,373309.562500,63.000000,1.000000
440428.10999634,4464076.89000122,5.15999985,0,221,33,5.000000,22.000000,373309.687500,63.000000,1.000000
440425.63999512,4464079.09999268,5.17000008,0,221,33,5.000000,24.000000,373309.687500,63.000000,1.000000
440427.69999268,4464076.99000732,5.21000004,0,223,31,5.000000,22.000000,373309.781250,63.000000,1.000000
440427.66999390,4464077.24000732,5.42999983,0,232,22,5.000000,6.000000,373309.781250,63.000000,1.000000
440425.25999023,4464078.14000122,5.38999987,0,231,23,5.000000,24.000000,373309.781250,63.000000,1.000000
440425.22999146,4464078.61999695,5.48000002,0,234,20,5.000000,24.000000,373309.781250,63.000000,1.000000
440425.10999634,4464078.19999878,5.19000006,0,222,32,5.000000,8.000000,373309.875000,63.000000,1.000000
440427.15999939,4464077.17999451,5.19000006,0,222,32,5.000000,6.000000,373309.968750,63.000000,1.000000
440424.72999146,4464078.06999390,4.98999977,0,213,41,5.000000,24.000000,373309.968750,63.000000,1.000000
440424.65999939,4464078.72000305,5.28000021,0,226,28,5.000000,8.000000,373309.968750,63.000000,1.000000
440424.63000061,4464079.20999329,5.36999989,0,230,24,5.000000,8.000000,373309.968750,63.000000,1.000000
440428.63999512,4464077.86000244,5.55999994,0,238,16,5.000000,20.000000,373310.187500,58.000000,1.000000
440427.99999573,4464076.92000000,5.13999987,0,220,34,5.000000,4.000000,373310.281250,58.000000,1.000000
440425.52999451,4464079.11000244,5.13000011,0,219,35,5.000000,6.000000,373310.281250,63.000000,1.000000
440425.52000000,4464079.30999939,5.15000010,0,220,34,5.000000,22.000000,373310.281250,63.000000,1.000000
440426.91999390,4464076.81999390,4.75000000,0,203,51,5.000000,20.000000,373310.375000,58.000000,1.000000
440426.72999146,4464077.25999634,5.53000021,0,237,17,5.000000,4.000000,373310.375000,59.000000,1.000000
440424.30999329,4464078.64999573,5.40000010,0,231,23,5.000000,22.000000,373310.375000,63.000000,1.000000
440424.32999756,4464079.25000183,5.25000000,0,225,29,5.000000,22.000000,373310.375000,63.000000,1.000000
440425.54999878,4464078.11999695,4.82000017,0,206,48,5.000000,20.000000,373310.562500,58.000000,1.000000
440425.49000122,4464078.99000732,5.09000015,0,218,36,5.000000,20.000000,373310.562500,58.000000,1.000000
440425.35000183,4464077.92999451,4.53000021,0,194,60,5.000000,20.000000,373310.687500,58.000000,1.000000
440425.15999939,4464078.36000244,5.46000004,0,234,20,5.000000,4.000000,373310.687500,58.000000,1.000000
440425.24999573,4464078.75000183,5.05000019,0,216,38,5.000000,20.000000,373310.687500,58.000000,1.000000
440425.17998840,4464078.92999451,5.34000015,0,228,26,5.000000,4.000000,373310.687500,58.000000,1.000000
440424.86999084,4464077.94000427,4.94000006,0,211,43,5.000000,20.000000,373310.781250,58.000000,1.000000
440424.79999878,4464078.11999695,5.34000015,0,228,26,5.000000,4.000000,373310.781250,58.000000,1.000000
440424.77999451,4464078.58000366,5.17999983,0,222,32,5.000000,4.000000,373310.781250,58.000000,1.000000
440424.71999695,4464078.97999756,5.40000010,0,231,23,5.000000,4.000000,373310.781250,58.000000,1.000000
440424.71999695,4464079.17000000,5.48999977,0,235,19,5.000000,20.000000,373310.781250,58.000000,1.000000
440424.55999329,4464078.03999512,5.03999996,0,216,38,5.000000,20.000000,373310.875000,58.000000,1.000000
440424.53998901,4464078.52000610,5.09999990,0,218,36,5.000000,20.000000,373310.875000,58.000000,1.000000
440424.46999695,4464078.69000427,5.38000011,0,230,24,5.000000,4.000000,373310.875000,58.000000,1.000000
440424.47999146,4464079.22999756,5.36999989,0,230,24,5.000000,4.000000,373310.875000,58.000000,1.000000
440427.77000000,4464077.00000183,5.38999987,0,231,23,5.000000,16.000000,373311.281250,63.000000,1.000000
440427.70998718,4464080.64999573,5.46000004,0,234,20,5.000000,0.000000,373311.281250,63.000000,1.000000
440427.13000061,4464077.14000122,5.17000008,0,221,33,5.000000,0.000000,373311.375000,63.000000,1.000000
440424.58999207,4464078.45999329,5.07000017,0,217,37,5.000000,18.000000,373311.375000,100.000000,1.000000
440424.82999756,4464077.92000000,4.84999990,0,207,47,5.000000,0.000000,373311.781250,63.000000,1.000000
440424.77000000,4464078.02000610,4.96000004,0,212,42,5.000000,16.000000,373311.781250,63.000000,1.000000
440424.69999268,4464078.20999329,5.19000006,0,222,32,5.000000,0.000000,373311.781250,63.000000,1.000000
440424.70998718,4464078.44000427,5.13999987,0,220,34,5.000000,16.000000,373311.781250,63.000000,1.000000
440424.64998962,4464079.11000244,5.44000006,0,233,21,5.000000,0.000000,373311.781250,63.000000,1.000000
440424.65999939,4464079.31999390,5.42000008,0,232,22,5.000000,16.000000,373311.781250,63.000000,1.000000
440424.42998840,4464078.64000122,5.30000019,0,227,27,6.000000,13.000000,373347.468750,45.000000,1.000000
440424.66999390,4464078.00999634,4.86000013,0,208,46,6.000000,11.000000,373348.093750,63.000000,1.000000
440424.44999268,4464078.52000610,5.17000008,0,221,33,6.000000,9.000000,373348.468750,63.000000,1.000000
440424.31998779,4464078.83000366,5.55999994,0,238,16,6.000000,1.000000,373350.968750,63.000000,1.000000
440427.49000122,4464076.89999573,5.07000017,0,217,37,6.000000,3.000000,373350.968750,63.000000,1.000000
440424.49999573,4464078.14000122,5.09000015,0,218,36,6.000000,8.000000,373353.468750,63.000000,1.000000
440427.86999084,4464076.99000732,5.51999998,0,236,18,6.000000,8.000000,373354.187500,63.000000,1.000000
440425.35000183,4464083.64000122,6.59999990,27,255,0,4.000000,29.000000,373224.218750,62.000000,1.000000
440427.99000122,4464079.16000549,6.55000019,26,255,0,4.000000,13.000000,373224.718750,61.000000,1.000000
440428.33999207,4464081.67999451,5.98000002,1,255,0,4.000000,27.000000,373225.218750,63.000000,1.000000
440426.24000122,4464082.36000244,6.61000013,28,255,0,4.000000,5.000000,373226.218750,63.000000,1.000000
440425.24999573,4464081.97000305,6.55000019,26,255,0,4.000000,28.000000,373227.718750,63.000000,1.000000
440425.08999207,4464082.20999329,6.48000002,23,255,0,4.000000,26.000000,373228.125000,63.000000,1.000000
440428.41999390,4464079.22999756,6.11999989,7,255,0,4.000000,28.000000,373228.531250,63.000000,1.000000
440428.14998962,4464079.50999634,6.61000013,28,255,0,4.000000,16.000000,373231.031250,63.000000,1.000000
440425.78998901,4464082.22999756,6.51999998,24,255,0,5.000000,15.000000,373304.562500,63.000000,1.000000
440427.18999817,4464078.17999451,6.55000019,26,255,0,5.000000,5.000000,373306.656250,63.000000,1.000000
440426.16999390,4464077.64999573,5.92000008,0,253,1,5.000000,19.000000,373307.375000,63.000000,1.000000
440426.60999634,4464083.64999573,5.96000004,0,255,0,5.000000,30.000000,373308.062500,63.000000,1.000000
440429.52000000,4464080.05999939,6.11999989,7,255,0,5.000000,26.000000,373308.468750,63.000000,1.000000
440427.75999023,4464077.16000549,5.61999989,0,240,14,5.000000,26.000000,373308.781250,63.000000,1.000000
440426.82999756,4464077.81999390,6.44999981,21,255,0,5.000000,24.000000,373309.468750,63.000000,1.000000
440426.28998901,4464077.61999695,6.05999994,4,255,0,5.000000,24.000000,373309.562500,63.000000,1.000000
440428.11999084,4464078.11000244,5.63000011,0,241,13,5.000000,10.000000,373308.656250,63.000000,1.000000
440428.30999329,4464079.11999695,6.13999987,8,255,0,4.000000,25.000000,373225.625000,63.000000,1.000000
440425.92998840,4464077.14000122,5.88999987,0,252,2,4.000000,19.000000,373226.625000,63.000000,1.000000
440425.74000122,4464082.17999451,6.63000011,29,255,0,4.000000,1.000000,373227.031250,63.000000,1.000000
440426.27000000,4464082.44999878,6.65999985,30,255,0,4.000000,30.000000,373227.531250,63.000000,1.000000
440425.54999878,4464082.70999329,6.25000000,12,255,0,4.000000,12.000000,373227.812500,63.000000,1.000000
440424.66999390,4464079.59999268,5.98999977,1,255,0,4.000000,10.000000,373228.125000,63.000000,1.000000
440426.88999512,4464082.64000122,6.57000017,26,255,0,4.000000,6.000000,373229.312500,63.000000,1.000000
440427.77000000,4464082.11999695,6.38999987,18,255,0,4.000000,2.000000,373230.406250,100.000000,1.000000
440429.78998901,4464080.92999451,6.46999979,22,255,0,5.000000,29.000000,373304.281250,56.000000,1.000000
440426.04999878,4464077.72999756,6.15000010,8,255,0,5.000000,1.000000,373307.781250,63.000000,1.000000
440428.14998962,4464077.28000061,5.75000000,0,246,8,5.000000,26.000000,373308.656250,63.000000,1.000000
440426.94999268,4464077.47000305,6.01999998,2,255,0,5.000000,26.000000,373309.062500,63.000000,1.000000
440427.77999451,4464077.28999512,5.71999979,0,245,9,5.000000,2.000000,373310.562500,100.000000,1.000000
440427.03998901,4464083.22000305,5.84999990,0,250,4,3.000000,7.000000,373180.375000,63.000000,1.000000
440427.00999023,4464083.19999878,5.82000017,0,249,5,3.000000,21.000000,373181.156250,63.000000,1.000000
440424.57999756,4464079.83999817,5.63999987,0,241,13,4.000000,31.000000,373223.718750,63.000000,1.000000
440424.86999084,4464083.50999634,6.67000008,30,255,0,4.000000,15.000000,373223.812500,63.000000,1.000000
440427.64998962,4464083.03000061,6.11000013,6,255,0,4.000000,15.000000,373224.218750,63.000000,1.000000
440425.27999451,4464082.14999573,6.67999983,31,255,0,4.000000,13.000000,373224.218750,62.000000,1.000000
440425.81998779,4464082.44000427,6.55000019,26,255,0,4.000000,29.000000,373224.312500,62.000000,1.000000
440425.17998840,4464082.94000427,6.46000004,21,255,0,4.000000,27.000000,373224.625000,63.000000,1.000000
440425.13999512,4464079.78000061,6.23999977,12,255,0,4.000000,27.000000,373224.625000,63.000000,1.000000
440426.11999084,4464082.69000427,6.57999992,26,255,0,4.000000,27.000000,373224.812500,63.000000,1.000000
440428.36999084,4464079.13000671,6.13999987,8,255,0,4.000000,29.000000,373224.812500,60.000000,1.000000
440425.15999939,4464083.42000000,6.59999990,27,255,0,4.000000,9.000000,373225.031250,63.000000,1.000000
440425.08999207,4464081.97000305,6.63000011,29,255,0,4.000000,25.000000,373225.031250,63.000000,1.000000
440427.86999084,4464081.67999451,6.26999998,13,255,0,4.000000,27.000000,373225.125000,63.000000,1.000000
440426.45998718,4464081.94000427,6.11999989,7,255,0,4.000000,9.000000,373225.312500,63.000000,1.000000
440425.66999390,4464082.03999512,6.51999998,24,255,0,4.000000,5.000000,373226.125000,63.000000,1.000000
440427.63000061,4464078.72000305,6.11000013,6,255,0,4.000000,23.000000,373226.125000,63.000000,1.000000
440424.74000122,4464082.13000671,6.38000011,18,255,0,4.000000,19.000000,373226.312500,63.000000,1.000000
440425.31998779,4464082.41000549,6.67999983,31,255,0,4.000000,19.000000,373226.406250,63.000000,1.000000
440425.24000122,4464081.47000305,6.55999994,26,255,0,4.000000,19.000000,373226.406250,63.000000,1.000000
440427.06998779,4464076.97999756,5.63999987,0,241,13,4.000000,5.000000,373226.406250,63.000000,1.000000
440426.43999817,4464082.78000061,6.30000019,14,255,0,4.000000,19.000000,373226.625000,63.000000,1.000000
440426.35000183,4464081.88000671,6.25000000,12,255,0,4.000000,19.000000,373226.625000,63.000000,1.000000
440426.20998718,4464080.36999695,6.44999981,21,255,0,4.000000,3.000000,373226.625000,63.000000,1.000000
440427.74000122,4464080.94000427,6.55000019,26,255,0,4.000000,19.000000,373227.031250,63.000000,1.000000
440427.39998962,4464077.27000610,5.59999990,0,240,14,4.000000,19.000000,373227.031250,63.000000,1.000000
440426.31998779,4464082.89000122,6.34000015,16,255,0,4.000000,1.000000,373227.125000,63.000000,1.000000
440426.94999268,4464082.86999695,6.59999990,27,255,0,4.000000,1.000000,373227.218750,100.000000,1.000000
440424.74000122,4464082.11999695,6.59000015,27,255,0,4.000000,14.000000,373227.218750,63.000000,1.000000
440426.35000183,4464077.25000183,5.94999981,0,255,0,4.000000,1.000000,373227.218750,63.000000,1.000000
440425.88000061,4464083.42999451,5.92999983,0,254,0,4.000000,30.000000,373227.406250,63.000000,1.000000
440427.91999390,4464082.17999451,6.61999989,29,255,0,4.000000,17.000000,373227.406250,63.000000,1.000000
440427.41999390,4464077.61000244,5.75000000,0,246,8,4.000000,1.000000,373227.406250,63.000000,1.000000
440426.30999329,4464083.27000610,6.05000019,4,255,0,4.000000,14.000000,373227.531250,63.000000,1.000000
440424.36999084,4464078.80999939,6.63999987,29,255,0,4.000000,28.000000,373227.625000,63.000000,1.000000
440428.16999390,4464082.11999695,6.25000000,12,255,0,4.000000,14.000000,373227.906250,63.000000,1.000000
440428.31998779,4464079.00000183,6.07999992,5,255,0,4.000000,30.000000,373228.031250,63.000000,1.000000
440425.75999023,4464081.83000366,6.51999998,24,255,0,4.000000,10.000000,373228.218750,63.000000,1.000000
440428.17998840,4464082.31999390,6.61000013,28,255,0,4.000000,12.000000,373228.312500,63.000000,1.000000
440425.19999268,4464082.64999573,6.63999987,29,255,0,4.000000,24.000000,373228.625000,63.000000,1.000000
440425.80999329,4464083.53000061,5.92000008,0,253,1,4.000000,8.000000,373228.718750,63.000000,1.000000
440427.92998840,4464079.33000366,6.61999989,29,255,0,4.000000,26.000000,373228.812500,63.000000,1.000000
